1820
-0.94188 -1.18032 4.08765
-0.942077 -1.16433 4.08814
-0.942275 -1.14834 4.08862
-0.943263 -1.06838 4.09105
-0.94346 -1.05239 4.09154
-0.930744 -1.02186 4.03243
-0.930939 -1.00611 4.03291
-0.931133 -0.990361 4.03338
-0.932301 -0.895865 4.03625
-0.932495 -0.880116 4.03673
-0.93269 -0.864366 4.03721
-0.932884 -0.848617 4.03768
-0.933079 -0.832868 4.03816
-0.92109 -0.775042 3.98167
-0.921857 -0.712985 3.98356
-0.93483 -0.691124 4.04246
-0.994842 -0.278086 4.30676
-0.980908 -0.241895 4.24192
-0.981724 -0.175898 4.24393
-0.981927 -0.159398 4.24443
-0.996499 -0.143963 4.31083
-0.996706 -0.127198 4.31134
-0.996913 -0.110433 4.31185
-0.99712 -0.0936674 4.31236
-0.997328 -0.0769021 4.31287
-1.01323 0.00829909 4.38356
-1.01407 0.0764599 4.38562
-1.01429 0.0935001 4.38614
-1.0145 0.11054 4.38666
-1.01471 0.12758 4.38718
-1.01492 0.144621 4.38769
-1.00023 0.157813 4.31999
-1.00043 0.174578 4.3205
-1.01555 0.195741 4.38924
-1.01576 0.212781 4.38976
-1.0166 0.280942 4.39183
-1.06512 0.353217 4.61241
-0.977047 1.66618 4.17405
-0.90682 -1.68315 4.01274
-0.919959 -1.65988 4.07349
-0.909155 -1.49415 4.01848
-0.90935 -1.47841 4.01896
-0.909544 -1.46266 4.01944
-0.909739 -1.44691 4.01991
-0.909933 -1.43116 4.02039
-0.905574 -0.774862 3.98206
-0.90634 -0.712806 3.98394
-0.919078 -0.690942 4.04286
-0.963999 -0.274702 4.24133
-0.964406 -0.241703 4.24234
-0.98056 -0.0767076 4.31329
-0.981181 -0.0264115 4.31481
-0.99619 0.00849677 4.38398
-0.997032 0.0766576 4.38605
-0.997663 0.127778 4.3876
-1.0147 0.287107 4.46281
-1.03078 0.328513 4.53683
-0.961053 1.66636 4.17444
-0.891068 -1.68296 4.01314
-0.903965 -1.6597 4.07389
-0.890057 -0.774682 3.98245
-0.890824 -0.712626 3.98433
-0.903327 -0.690759 4.04325
-0.947497 -0.27451 4.24174
-0.947905 -0.241512 4.24275
-0.963999 -0.0597477 4.31421
-0.964413 -0.026217 4.31523
-0.979147 0.00869445 4.3844
-0.979989 0.0768552 4.38647
-0.98062 0.127976 4.38803
-0.982305 0.264297 4.39216
-1.01316 0.328717 4.53727
-0.944861 1.65056 4.17436
-0.875511 -1.66703 4.01401
-0.88797 -1.65951 4.07429
-0.895083 -1.08381 4.09176
-0.895281 -1.06782 4.09225
-0.895478 -1.05183 4.09273
-0.895676 -1.03584 4.09322
-0.896071 -1.00386 4.09419
-0.896268 -0.987865 4.09467
-0.896466 -0.971874 4.09516
-0.884462 -0.942565 4.03599
-0.884656 -0.926815 4.03647
-0.884851 -0.911066 4.03695
-0.885045 -0.895317 4.03743
-0.88524 -0.879568 4.03791
-0.885434 -0.863818 4.03838
-0.885629 -0.848069 4.03886
-0.885824 -0.83232 4.03934
-0.886018 -0.81657 4.03982
-0.886213 -0.800821 4.0403
-0.87454 -0.774502 3.98283
-0.875307 -0.712445 3.98472
-0.887575 -0.690576 4.04364
-0.944538 -0.277503 4.30802
-0.944952 -0.243972 4.30903
-0.947024 -0.0763186 4.31412
-0.947645 -0.0260225 4.31565
-0.962104 0.00889211 4.38483
-0.963156 0.0940931 4.38742
-0.965262 0.264495 4.39259
-1.01113 0.335919 4.61321
-0.941954 1.67774 4.2375
-0.859759 -1.66685 4.0144
-0.871976 -1.65933 4.07469
-0.860732 -1.5881 4.01679
-0.860927 -1.57235 4.01727
-0.849632 -1.53452 3.96015
-0.849823 -1.519 3.96062
-0.850015 -1.50349 3.96109
-0.850207 -1.48798 3.96156
-0.850399 -1.47246 3.96203
-0.85059 -1.45695 3.9625
-0.850782 -1.44143 3.96297
-0.850973 -1.42592 3.96344
-0.851165 -1.4104 3.96391
-0.851357 -1.39489 3.96439
-0.851549 -1.37938 3.96486
-0.85174 -1.36386 3.96533
-0.851932 -1.34835 3.9658
-0.852124 -1.33283 3.96627
-0.852315 -1.31732 3.96674
-0.852507 -1.30181 3.96721
-0.864234 -1.30462 4.02539
-0.864429 -1.28887 4.02587
-0.864624 -1.27312 4.02635
-0.876718 -1.27553 4.08633
-0.876916 -1.25954 4.08682
-0.877113 -1.24355 4.08731
-0.877311 -1.22755 4.08779
-0.877508 -1.21156 4.08828
-0.877706 -1.19557 4.08876
-0.877903 -1.17958 4.08925
-0.890394 -1.18057 4.15115
-0.890595 -1.16432 4.15165
-0.890796 -1.14808 4.15214
-0.878694 -1.11561 4.09119
-0.878891 -1.09962 4.09167
-0.85979 -0.712266 3.9851
-0.88383 -0.699832 4.10381
-0.941482 -0.280594 4.37646
-0.928184 -0.243778 4.30945
-0.929427 -0.143186 4.31251
-0.929634 -0.12642 4.31301
-0.929841 -0.109655 4.31352
-0.930255 -0.0761241 4.31454
-0.930877 -0.0258281 4.31607
-0.931291 0.00770266 4.31709
-0.931912 0.0579988 4.31861
-0.946113 0.0942908 4.38784
-0.946535 0.128371 4.38887
-0.946745 0.145411 4.38939
-0.948219 0.264693 4.39301
-0.977919 0.329126 4.53815
-0.92571 1.67793 4.23791
-0.844007 -1.66667 4.01479
-0.855982 -1.65914 4.07508
-0.84498 -1.58792 4.01718
-0.855682 -0.721709 4.04347
-0.867836 -0.699646 4.10421
-0.911002 -0.277114 4.30885
-0.911416 -0.243583 4.30987
-0.912659 -0.142991 4.31292
-0.913487 -0.0759297 4.31496
-0.914109 -0.0256336 4.31649
-0.914523 0.00789715 4.3175
-0.915559 0.0917239 4.32005
-0.91618 0.14202 4.32157
-0.931176 0.26489 4.39344
-0.945815 0.32256 4.46559
-0.909666 1.69436 4.23881
-0.806581 -1.61973 3.90176
-0.81764 -1.61173 3.95857
-0.83993 -0.721527 4.04386
-0.851842 -0.699461 4.1046
-0.869143 -0.270669 4.17957
-0.881897 -0.240746 4.24439
-0.896305 -0.109266 4.31436
-0.896719 -0.0757352 4.31538
-0.897341 -0.0254391 4.3169
-0.897755 0.00809164 4.31792
-0.898791 0.0919184 4.32046
-0.899205 0.125449 4.32148
-0.900862 0.259572 4.32555
-0.901483 0.309868 4.32708
-0.893423 1.69454 4.23921
-0.791293 -1.61955 3.90214
-0.791671 -1.58898 3.90307
-0.81324 -0.711726 3.98626
-0.824762 -0.674096 4.04569
-0.852899 -0.270481 4.17997
-0.8533 -0.237998 4.18096
-0.87933 -0.125837 4.31427
-0.879951 -0.0755407 4.31579
-0.868045 -0.0260647 4.25131
-0.868249 -0.00956548 4.25181
-0.868453 0.00693373 4.25231
-0.869268 0.0729307 4.25432
-0.869472 0.08943 4.25482
-0.870083 0.138928 4.25632
-0.85932 0.249245 4.19574
-0.848097 0.292202 4.13509
-0.889448 1.70636 4.30389
-0.776004 -1.61938 3.90252
-0.786607 -1.61137 3.95934
-0.798299 -0.665003 3.98806
-0.825188 -0.267317 4.11851
-0.837056 -0.23781 4.18136
-0.85032 -0.124869 4.24872
-0.850932 -0.075371 4.25022
-0.851747 -0.00937407 4.25222
-0.852766 0.0731221 4.25473
-0.853174 0.106121 4.25573
-0.853582 0.139119 4.25673
-0.843076 0.249434 4.19615
-0.832103 0.292388 4.13549
-0.87315 1.72305 4.3048
-0.781195 -1.65019 4.01684
-0.771282 -1.59568 3.9602
-0.793259 -0.673731 4.04647
-0.809194 -0.267132 4.1189
-0.820812 -0.237621 4.18177
-0.822016 -0.140172 4.18472
-0.822417 -0.10769 4.18571
-0.823019 -0.0589653 4.18719
-0.835245 -0.00918267 4.25263
-0.824625 0.0709662 4.19113
-0.825026 0.103449 4.19212
-0.825427 0.135932 4.1931
-0.804544 0.239727 4.0742
-0.794474 0.281544 4.01717
-0.868992 1.75227 4.37209
-0.775814 -1.6742 4.07659
-0.765832 -1.6185 4.01819
-0.777507 -0.673548 4.04687
-0.7932 -0.266946 4.1193
-0.804568 -0.237433 4.18217
-0.805772 -0.139984 4.18513
-0.805973 -0.123743 4.18562
-0.806174 -0.107501 4.18611
-0.806775 -0.0587769 4.18759
-0.807377 -0.0100526 4.18907
-0.808381 0.0711546 4.19154
-0.808983 0.119879 4.19302
-0.809183 0.13612 4.19351
-0.788792 0.23991 4.07459
-0.778957 0.281724 4.01756
-0.75982 -1.67402 4.07699
-0.750081 -1.61832 4.01858
-0.761755 -0.673365 4.04726
-0.777206 -0.266761 4.1197
-0.788324 -0.237244 4.18258
-0.790531 -0.0585885 4.188
-0.791133 -0.00986417 4.18948
-0.791936 0.0551016 4.19145
-0.77304 0.240092 4.07498
-0.763441 0.281904 4.01794
-0.754021 -1.69879 4.13862
-0.744221 -1.64185 4.07836
-0.745809 -0.688932 4.04717
-0.761212 -0.266575 4.1201
-0.761607 -0.234592 4.12107
-0.774287 -0.0584001 4.1884
-0.775692 0.05529 4.19185
-0.757289 0.240275 4.07538
-0.747924 0.282084 4.01833
-0.737777 -1.6986 4.13902
-0.729668 -0.720248 4.04661
-0.729862 -0.704498 4.04709
-0.730057 -0.688749 4.04757
-0.745218 -0.26639 4.1205
-0.745613 -0.234407 4.12147
-0.757843 -0.0744531 4.18831
-0.758445 -0.0257288 4.18979
-0.758645 -0.00948735 4.19029
-0.758846 0.00675409 4.19078
-0.749169 0.0534416 4.1302
-0.749367 0.0694331 4.13069
-0.741537 0.240458 4.07577
-0.742121 0.287706 4.0772
-0.721734 -1.68217 4.13992
-0.710608 -0.987803 4.03888
-0.710803 -0.972054 4.03935
-0.710997 -0.956304 4.03983
-0.711192 -0.940555 4.04031
-0.711386 -0.924806 4.04079
-0.711581 -0.909056 4.04127
-0.711776 -0.893307 4.04174
-0.71197 -0.877558 4.04222
-0.712165 -0.861809 4.0427
-0.712359 -0.846059 4.04318
-0.712554 -0.83031 4.04366
-0.712748 -0.814561 4.04413
-0.712943 -0.798811 4.04461
-0.713138 -0.783062 4.04509
-0.713332 -0.767313 4.04557
-0.713527 -0.751564 4.04605
-0.713721 -0.735814 4.04652
-0.713916 -0.720065 4.047
-0.714305 -0.688567 4.04796
-0.729224 -0.266204 4.1209
-0.739592 -0.236679 4.18379
-0.741599 -0.0742647 4.18872
-0.732187 -0.0263308 4.12818
-0.732582 0.00565237 4.12915
-0.733175 0.0536271 4.1306
-0.725785 0.240641 4.07616
-0.726369 0.287888 4.07759
-0.70549 -1.68198 4.14032
-0.705891 -1.6495 4.14131
-0.706092 -1.63325 4.1418
-0.696831 -1.59332 4.08101
-0.697029 -1.57733 4.0815
-0.697226 -1.56134 4.08198
-0.697424 -1.54534 4.08247
-0.697622 -1.52935 4.08295
-0.697819 -1.51336 4.08344
-0.688825 -1.47585 4.02445
-0.689019 -1.4601 4.02493
-0.689214 -1.44435 4.02541
-0.689408 -1.4286 4.02588
-0.689603 -1.41285 4.02636
-0.699005 -1.41741 4.08635
-0.699202 -1.40142 4.08683
-0.6994 -1.38543 4.08732
-0.699597 -1.36944 4.08781
-0.699795 -1.35345 4.08829
-0.690965 -1.30261 4.02971
-0.691159 -1.28686 4.03019
-0.691354 -1.27111 4.03066
-0.691549 -1.25536 4.03114
-0.691743 -1.23961 4.03162
-0.691938 -1.22386 4.0321
-0.692132 -1.20811 4.03258
-0.692327 -1.19236 4.03305
-0.692522 -1.17661 4.03353
-0.68374 -1.14468 3.97617
-0.683932 -1.12917 3.97664
-0.684124 -1.11366 3.97711
-0.684315 -1.09814 3.97758
-0.684507 -1.08263 3.97805
-0.693689 -1.08212 4.0364
-0.693884 -1.06637 4.03688
-0.694078 -1.05062 4.03736
-0.694273 -1.03487 4.03783
-0.694467 -1.01912 4.03831
-0.694662 -1.00337 4.03879
-0.698553 -0.688384 4.04835
-0.698748 -0.672635 4.04883
-0.712834 -0.298002 4.12032
-0.713032 -0.28201 4.12081
-0.71323 -0.266019 4.12129
-0.723348 -0.236491 4.18419
-0.723549 -0.220249 4.18469
-0.725355 -0.0740763 4.18912
-0.716193 -0.0261452 4.12857
-0.716391 -0.0101537 4.12906
-0.716588 0.00583789 4.12955
-0.707698 0.0518319 4.07082
-0.717576 0.0857957 4.13197
-0.717774 0.101787 4.13246
-0.709839 0.225074 4.07607
-0.710617 0.288071 4.07799
-0.689246 -1.68179 4.14073
-0.668224 -1.1445 3.97656
-0.682413 -0.7197 4.04779
-0.682607 -0.70395 4.04826
-0.682996 -0.672452 4.04922
-0.692296 -0.665622 4.10956
-0.692494 -0.649631 4.11004
-0.692691 -0.633639 4.11053
-0.692889 -0.617648 4.11101
-0.693087 -0.601656 4.1115
-0.693284 -0.585665 4.11199
-0.693482 -0.569673 4.11247
-0.693679 -0.553681 4.11296
-0.693877 -0.53769 4.11344
-0.694074 -0.521698 4.11393
-0.694272 -0.505707 4.11441
-0.69447 -0.489715 4.1149
-0.694667 -0.473724 4.11538
-0.694865 -0.457732 4.11587
-0.695062 -0.441741 4.11635
-0.69526 -0.425749 4.11684
-0.695457 -0.409757 4.11732
-0.695655 -0.393766 4.11781
-0.695853 -0.377774 4.1183
-0.69605 -0.361783 4.11878
-0.696248 -0.345791 4.11927
-0.696445 -0.3298 4.11975
-0.69684 -0.297816 4.12072
-0.707305 -0.220061 4.18509
-0.707706 -0.187578 4.18608
-0.707907 -0.171337 4.18657
-0.698618 -0.153892 4.12509
-0.698816 -0.137901 4.12558
-0.699014 -0.121909 4.12606
-0.708709 -0.106371 4.18854
-0.70891 -0.0901293 4.18904
-0.709111 -0.0738879 4.18953
-0.700199 -0.0259597 4.12897
-0.700594 0.00602339 4.12994
-0.69253 0.0992625 4.07264
-0.692725 0.115012 4.07312
-0.69292 0.130761 4.0736
-0.693114 0.14651 4.07408
-0.693309 0.16226 4.07455
-0.693503 0.178009 4.07503
-0.693698 0.193758 4.07551
-0.693892 0.209507 4.07599
-0.694282 0.241006 4.07694
-0.694476 0.256755 4.07742
-0.69506 0.304003 4.07886
-0.695255 0.319752 4.07933
-0.695449 0.335502 4.07981
-0.673002 -1.6816 4.14113
-0.673202 -1.66536 4.14163
-0.673403 -1.64912 4.14212
-0.673604 -1.63288 4.14261
-0.664843 -1.59295 4.08181
-0.665041 -1.57696 4.08229
-0.665238 -1.56096 4.08278
-0.665436 -1.54497 4.08326
-0.665633 -1.52898 4.08375
-0.665831 -1.51299 4.08423
-0.666028 -1.497 4.08472
-0.666226 -1.48101 4.0852
-0.65771 -1.44398 4.02619
-0.657905 -1.42823 4.02667
-0.666819 -1.43303 4.08666
-0.667016 -1.41704 4.08715
-0.667214 -1.40105 4.08763
-0.667411 -1.38506 4.08812
-0.667609 -1.36907 4.0886
-0.667807 -1.35307 4.08909
-0.668004 -1.33708 4.08957
-0.659461 -1.30224 4.03049
-0.659656 -1.28649 4.03097
-0.65985 -1.27074 4.03145
-0.660823 -1.192 4.03384
-0.661018 -1.17625 4.03432
-0.652707 -1.14432 3.97694
-0.652898 -1.12881 3.97742
-0.65309 -1.1133 3.97789
-0.653282 -1.09778 3.97836
-0.653473 -1.08227 3.97883
-0.662185 -1.08175 4.03719
-0.66238 -1.066 4.03766
-0.662575 -1.05025 4.03814
-0.662769 -1.0345 4.03862
-0.662964 -1.01875 4.0391
-0.663158 -1.003 4.03958
-0.663353 -0.987255 4.04005
-0.663547 -0.971505 4.04053
-0.680846 -0.297631 4.12112
-0.691061 -0.219872 4.1855
-0.684205 -0.0257742 4.12937
-0.6846 0.00620891 4.13034
-0.676 0.036448 4.07112
-0.676779 0.0994452 4.07303
-0.644099 -1.27056 4.03184
-0.644293 -1.25481 4.03232
-0.644877 -1.20756 4.03375
-0.64799 -0.955573 4.0414
-0.656752 -0.9531 4.10162
-0.656949 -0.937108 4.1021
-0.657147 -0.921117 4.10259
-0.657344 -0.905125 4.10308
-0.657542 -0.889133 4.10356
-0.649158 -0.861078 4.04427
-0.659913 -0.697235 4.10939
-0.66011 -0.681243 4.10987
-0.660308 -0.665251 4.11036
-0.660506 -0.64926 4.11084
-0.660703 -0.633268 4.11133
-0.660901 -0.617277 4.11181
-0.661098 -0.601285 4.1123
-0.661296 -0.585294 4.11278
-0.661493 -0.569302 4.11327
-0.661691 -0.55331 4.11375
-0.661889 -0.537319 4.11424
-0.662086 -0.521327 4.11472
-0.662284 -0.505336 4.11521
-0.662481 -0.489344 4.11569
-0.662679 -0.473353 4.11618
-0.662876 -0.457361 4.11666
-0.663074 -0.44137 4.11715
-0.663272 -0.425378 4.11764
-0.663469 -0.409386 4.11812
-0.663667 -0.393395 4.11861
-0.663864 -0.377403 4.11909
-0.664062 -0.361412 4.11958
-0.664259 -0.34542 4.12006
-0.664457 -0.329429 4.12055
-0.664655 -0.313437 4.12103
-0.664852 -0.297445 4.12152
-0.66505 -0.281454 4.122
-0.665247 -0.265462 4.12249
-0.665445 -0.249471 4.12297
-0.665642 -0.233479 4.12346
-0.675218 -0.187201 4.18689
-0.666433 -0.169513 4.1254
-0.66663 -0.153521 4.12589
-0.666828 -0.13753 4.12637
-0.667025 -0.121538 4.12686
-0.667223 -0.105547 4.12734
-0.667421 -0.089555 4.12783
-0.667618 -0.0735634 4.12831
-0.668606 0.00639442 4.13074
-0.660443 0.05238 4.07199
-0.661221 0.115377 4.07391
-0.661416 0.131126 4.07438
-0.653099 0.143536 4.01641
-0.653291 0.15905 4.01688
-0.653482 0.174564 4.01735
-0.662194 0.194123 4.0763
-0.662389 0.209873 4.07677
-0.662583 0.225622 4.07725
-0.654249 0.236621 4.01924
-0.654441 0.252135 4.01971
-0.654632 0.267649 4.02018
-0.654824 0.283163 4.02065
-0.655016 0.298678 4.02112
-0.655207 0.314192 4.02159
-0.655399 0.329706 4.02206
-0.655591 0.34522 4.02253
-0.655782 0.360734 4.023
-0.664529 0.383115 4.08203
-0.664724 0.398864 4.08251
-0.664918 0.414613 4.08299
-0.665113 0.430363 4.08347
-0.665308 0.446112 4.08394
-0.665502 0.461861 4.08442
-0.665697 0.47761 4.0849
-0.665891 0.49336 4.08538
-0.666086 0.509109 4.08586
-0.66628 0.524858 4.08633
-0.675323 0.550108 4.14724
-0.675521 0.566099 4.14773
-0.675718 0.582091 4.14821
-0.675916 0.598082 4.1487
-0.676114 0.614074 4.14918
-0.676311 0.630066 4.14967
-0.676509 0.646057 4.15015
-0.676706 0.662049 4.15064
-0.676904 0.67804 4.15112
-0.628542 -1.25463 4.03271
-0.628736 -1.23888 4.03319
-0.628931 -1.22313 4.03367
-0.629125 -1.20738 4.03415
-0.633406 -0.860895 4.04466
-0.643919 -0.697049 4.10978
-0.651821 -0.0573863 4.1292
-0.652019 -0.0413948 4.12968
-0.652217 -0.0254032 4.13017
-0.643913 -0.0104344 4.07047
-0.644108 0.00531487 4.07095
-0.644302 0.0210642 4.07143
-0.644886 0.068312 4.07286
-0.64508 0.0840613 4.07334
-0.645275 0.0998105 4.07382
-0.66091 0.678226 4.15152
-0.617654 -0.860712 4.04505
-0.619794 -0.68747 4.05031
-0.635827 -0.0572008 4.1296
-0.62855 0.0212469 4.07182
-0.629523 0.0999933 4.07421
-0.601902 -0.86053 4.04545
-0.604043 -0.687288 4.0507
-0.619833 -0.0570153 4.12999
-0.612799 0.0214296 4.07221
-0.613577 0.0844267 4.07413
-0.613771 0.100176 4.0746
-0.586151 -0.860347 4.04584
-0.595936 -0.696493 4.11098
-0.603839 -0.0568298 4.13039
-0.596463 -0.0256356 4.07117
-0.596658 -0.00988628 4.07165
-0.596852 0.00586298 4.07213
-0.597047 0.0216123 4.07261
-0.597436 0.0531108 4.07356
-0.597631 0.0688601 4.07404
-0.59802 0.100359 4.075
-0.570399 -0.860164 4.04623
-0.579942 -0.696307 4.11138
-0.595402 -0.0725691 4.19236
-0.5811 0.00604567 4.07252
-0.574365 0.0513501 4.01552
-0.554647 -0.859982 4.04662
-0.563948 -0.696122 4.11178
-0.571653 -0.0724504 4.1307
-0.558274 0.00498746 4.01449
-0.558849 0.0515301 4.01591
-0.538895 -0.859799 4.04702
-0.555089 -0.705608 4.17395
-0.548624 -0.0723353 4.07092
-0.536118 0.00396033 3.95817
-0.530231 0.0479819 3.90448
-0.529787 -0.871658 4.10723
-0.545948 -0.715396 4.23809
-0.526474 -0.0567094 4.01338
-0.52083 0.00413767 3.95855
-0.509109 0.0463699 3.85134
-0.534234 -0.909919 4.29871
-0.666358 -0.914671 5.51342
-0.530426 -0.0718154 4.19398
-0.505541 0.00431501 3.95893
-0.494257 0.0465422 3.85171
-0.517466 -0.909724 4.29912
-0.668759 -0.950833 5.74679
-0.542373 -0.0712746 4.46343
-0.521914 0.0109531 4.26095
-0.515788 0.0583045 4.19833
-0.487905 -0.88351 4.17014
-0.658488 -0.969985 5.87155
-0.540001 -0.0708723 4.61231
-0.505412 0.0111445 4.26136
-0.499544 0.0584929 4.19873
-0.471661 -0.883322 4.17055
-0.635385 -0.969718 5.87212
-0.590996 -0.0696646 5.32539
-0.555173 0.026044 4.9456
-0.516517 0.0701724 4.54154
-0.624122 -0.989734 6.00256
-0.579977 -0.0692705 5.43136
-0.571488 0.0345218 5.32907
-0.572259 0.0968889 5.33096
-0.578357 -0.949785 5.74904
-0.568499 -0.0688601 5.54175
-0.550696 0.034763 5.32958
-0.551466 0.0971301 5.33148
-0.576867 -0.989186 6.00374
-0.54684 -0.0686089 5.54229
-0.538854 0.0372882 5.43564
-0.53964 0.100928 5.43757
-0.689095 -1.25715 7.7236
-0.525181 -0.0683577 5.54283
-0.517637 0.0375342 5.43617
-0.518424 0.101174 5.4381
-0.658518 -1.25679 7.72437
-0.503522 -0.0681065 5.54337
-0.496421 0.0377803 5.4367
-0.505663 0.105136 5.54862
-0.996507 -2.6538 13.0042
-0.627941 -1.25644 7.72513
-0.481864 -0.0678553 5.54391
-0.483201 0.040421 5.54719
-0.484004 0.105387 5.54916
-0.679741 -1.85366 9.0186
-0.556335 -1.16048 7.11234
-0.460205 -0.0676041 5.54445
-0.461543 0.0406722 5.54773
-0.462345 0.105638 5.5497
-0.608243 -1.73865 8.44783
-0.553203 -1.22205 7.51043
-0.438546 -0.0673529 5.54498
-0.439884 0.0409234 5.54827
-0.440687 0.105889 5.55024
-0.559601 -1.68634 8.18961
-0.416888 -0.0671016 5.54552
-0.418225 0.0411746 5.54881
-0.419028 0.10614 5.55078
-0.527113 -1.68596 8.19042
-0.389027 -0.0670558 5.43612
-0.384357 0.0366922 5.33373
-0.391124 0.102651 5.44127
-0.494625 -1.68559 8.19123
-0.37357 -0.0665992 5.5466
-0.318192 0.017959 4.47167
-0.32269 0.0724204 4.54637
-0.462137 -1.68521 8.19204
-0.287769 0.0122179 4.20251
-0.291499 0.0631304 4.2682
-0.429649 -1.68483 8.19285
-0.271525 0.0124063 4.20292
-0.272127 0.0611306 4.2044
-0.397161 -1.68446 8.19366
-0.383325 -1.2536 7.73122
-0.255281 0.0125947 4.20332
-0.255883 0.061319 4.2048
-0.364673 -1.68408 8.19446
-0.338225 -1.18789 7.31125
-0.241382 0.0142068 4.26793
-0.239639 0.0615074 4.20521
-0.318017 -1.58918 7.72254
-0.297872 -1.1291 6.93548
-0.265277 -0.0653432 5.5493
-0.229259 0.0173921 4.40308
-0.225491 0.0638959 4.26985
-0.276545 -1.50483 7.30305
-0.253449 -1.02861 6.2907
-0.243618 -0.065092 5.54984
-0.210887 0.0663616 4.33657
-0.247667 -1.5045 7.30377
-0.222452 -0.985076 6.01256
-0.221959 -0.0648408 5.55038
-0.194119 0.0665561 4.33699
-0.21208 -1.42905 6.9284
-0.196436 -0.964626 5.88305
-0.200301 -0.0645896 5.55092
-0.175986 0.0644702 4.27108
-0.171986 -1.24439 6.00585
-0.173333 -0.964358 5.88363
-0.178642 -0.0643383 5.55146
-0.158419 0.0624495 4.20723
-0.145879 -1.19337 5.7522
-0.14895 -0.944804 5.75974
-0.155643 -0.0643489 5.44193
-0.142175 0.0626378 4.20763
-0.122599 -1.16936 5.63374
-0.127128 -0.963822 5.88478
-0.134427 -0.0641028 5.44246
-0.125869 0.0155466 4.27081
-0.125931 0.0628263 4.20804
-0.100479 -1.1691 5.63429
-0.104025 -0.963555 5.88536
-0.109367 0.015738 4.27122
-0.109687 0.0630147 4.20844
-0.0783599 -1.16884 5.63484
-0.0809226 -0.963287 5.88593
-0.0926827 0.000661559 4.33746
-0.093443 0.0632031 4.20885
-0.0569714 -1.14584 5.52129
-0.05782 -0.963019 5.88651
-0.0739659 -0.0654669 4.62392
-0.0756619 0.00213093 4.40639
-0.077199 0.0633915 4.20925
-0.0353127 -1.14559 5.52183
-0.0347174 -0.962751 5.88708
-0.0566395 -0.0654565 4.54868
-0.013654 -1.14534 5.52237
-0.0133477 -0.943231 5.76312
-0.040734 -0.0656345 4.40517
0.0059775 -1.12329 5.41344
0.00506177 -0.906883 5.53014
0.0271942 -1.12305 5.41397
0.0267205 -0.906632 5.53068
0.0429309 -1.08178 5.20839
0.0427909 -0.873202 5.31632
0.0633155 -1.08155 5.2089
0.0635832 -0.872961 5.31684
0.0837001 -1.08131 5.20941
0.0843756 -0.87272 5.31736
0.104085 -1.08108 5.20991
0.120319 -1.06153 5.11327
0.140312 -1.0613 5.11377
0.100672 -0.718109 4.32018
0.155557 -1.0425 5.02077
0.114126 -0.70774 4.25453
0.175172 -1.04227 5.02126
0.12716 -0.697695 4.19094
0.143404 -0.697507 4.19135
0.214403 -1.04182 5.02224
0.159648 -0.697318 4.19175
0.205971 -0.958428 4.60342
0.175892 -0.69713 4.19215
0.223896 -0.95822 4.60387
0.192136 -0.696941 4.19256
0.234404 0.0159502 4.96468
0.20838 -0.696753 4.19296
0.229864 0.00975371 4.63368
0.229639 -0.706401 4.25741
0.242041 0.00848912 4.55828
0.246141 -0.706209 4.25782
0.259661 0.00869351 4.55871
0.262643 -0.706018 4.25823
0.312364 -0.0601531 4.96426
0.277282 0.00889789 4.55915
0.369085 -1.078 5.21652
0.279145 -0.705826 4.25864
0.295773 -0.0613691 4.55745
0.282239 0.00628208 4.4153
0.38947 -1.07777 5.21702
0.301888 -0.715776 4.32519
0.313394 -0.0611647 4.55789
0.299282 0.00647976 4.41573
0.390942 -1.03977 5.02663
0.362584 -0.78401 4.77205
0.338296 -0.0606852 4.63419
0.323119 0.00807063 4.48711
0.392307 -1.00454 4.85009
0.381148 -0.783795 4.77251
0.389372 -0.0592599 4.96618
0.388421 0.0177365 4.96851
0.378765 0.0916122 4.88336
0.411209 -1.00432 4.85056
0.408641 -0.796428 4.85687
0.438034 -0.0579851 5.24948
0.426866 0.0216088 5.154
0.388935 0.0888181 4.79945
0.430111 -1.0041 4.85103
0.427543 -0.796208 4.85734
0.458418 -0.0577486 5.24998
0.446859 0.0218407 5.1545
0.416569 0.0920506 4.8843
0.469404 -1.03886 5.02859
0.456404 -0.809305 4.94483
0.478803 -0.0575122 5.25049
0.466851 0.0220726 5.155
0.445227 0.0954029 4.97229
0.4459 0.863534 5.08633
0.462467 2.18809 5.42047
0.489019 -1.03863 5.02908
0.475656 -0.809082 4.94531
0.52329 -0.0564742 5.45884
0.498181 0.0242499 5.25347
0.474966 0.0988817 5.0636
0.465516 0.863761 5.08681
0.483259 2.18833 5.42099
0.508635 -1.0384 5.02957
0.505969 -0.822669 5.03611
0.544507 -0.0562281 5.45937
0.530763 0.0265144 5.35589
0.505849 0.102494 5.15842
0.485131 0.863989 5.0873
0.528859 2.28297 5.64078
0.52825 -1.03818 5.03005
0.525585 -0.822441 5.0366
0.565724 -0.0559821 5.4599
0.551555 0.0267555 5.3564
0.525841 0.102726 5.15892
0.504747 0.864216 5.08779
0.55025 2.30488 5.64198
0.568307 -1.71608 5.10421
0.56806 -1.69609 5.10482
0.567814 -1.6761 5.10542
0.567567 -1.65611 5.10603
0.56732 -1.63613 5.10664
0.560158 -1.05643 5.12423
0.5452 -0.822214 5.03709
0.586941 -0.055736 5.46043
0.572348 0.0269966 5.35692
0.545834 0.102958 5.15942
0.524362 0.864444 5.08828
0.558374 2.25651 5.53061
0.638559 -2.51623 5.38627
0.638297 -2.49502 5.38692
0.638035 -2.47381 5.38756
0.637772 -2.45259 5.38821
0.63751 -2.43138 5.38885
0.622677 -2.3635 5.28488
0.62242 -2.34271 5.28551
0.622163 -2.32192 5.28614
0.621906 -2.30113 5.28677
0.621649 -2.28035 5.2874
0.621393 -2.25956 5.28803
0.621136 -2.23877 5.28867
0.606914 -2.176 5.1887
0.592251 -2.03568 5.095
0.592004 -2.01569 5.09561
0.591757 -1.9957 5.09621
0.591511 -1.97571 5.09682
0.591264 -1.95572 5.09743
0.591017 -1.93574 5.09803
0.59077 -1.91575 5.09864
0.590523 -1.89576 5.09925
0.590276 -1.87577 5.09985
0.590029 -1.85578 5.10046
0.589782 -1.83579 5.10107
0.602885 -1.84989 5.1986
0.602633 -1.82951 5.19921
0.602382 -1.80913 5.19983
0.60213 -1.78875 5.20045
0.601878 -1.76837 5.20107
0.600367 -1.64608 5.20478
0.600115 -1.6257 5.2054
0.599864 -1.60532 5.20602
0.599612 -1.58494 5.20664
0.59936 -1.56455 5.20725
0.599108 -1.54417 5.20787
0.598856 -1.52379 5.20849
0.598605 -1.50341 5.20911
0.612146 -1.51115 5.31075
0.61189 -1.49036 5.31138
0.611633 -1.46957 5.31201
0.611376 -1.44878 5.31264
0.611119 -1.428 5.31327
0.610862 -1.40721 5.3139
0.610605 -1.38642 5.31453
0.610349 -1.36563 5.31517
0.610092 -1.34484 5.3158
0.609835 -1.32405 5.31643
0.595835 -1.27921 5.21592
0.595583 -1.25883 5.21653
0.580397 -1.07619 5.12412
0.58015 -1.0562 5.12473
0.567239 -1.01811 5.03163
0.566996 -0.998497 5.03222
0.566754 -0.978885 5.03282
0.579162 -0.976241 5.12716
0.578915 -0.956252 5.12776
0.578668 -0.936262 5.12837
0.578422 -0.916273 5.12898
0.565543 -0.880823 5.03579
0.5653 -0.861211 5.03639
0.564815 -0.821986 5.03758
0.564573 -0.802374 5.03817
0.608157 -0.0554899 5.46096
0.59314 0.0272378 5.35744
0.578712 0.106721 5.25798
0.543978 0.864671 5.08877
0.566429 2.1893 5.42306
0.659775 -2.51599 5.3868
0.627047 -2.15538 5.18982
0.626795 -2.135 5.19044
0.626543 -2.11462 5.19106
0.626292 -2.09423 5.19168
0.615716 -1.23822 5.21766
0.615464 -1.21783 5.21828
0.601625 -1.1759 5.12159
0.601378 -1.15591 5.12219
0.601131 -1.13592 5.1228
0.600884 -1.11594 5.12341
0.600637 -1.09595 5.12401
0.583947 -0.782534 5.03926
0.596686 -0.776115 5.13372
0.596439 -0.756125 5.13433
0.596192 -0.736136 5.13493
0.595945 -0.716146 5.13554
0.595698 -0.696157 5.13615
0.595451 -0.676167 5.13675
0.595204 -0.656178 5.13736
0.594957 -0.636188 5.13797
0.608162 -0.626773 5.23622
0.60791 -0.606392 5.23684
0.607658 -0.58601 5.23745
0.607406 -0.565629 5.23807
0.607154 -0.545247 5.23869
0.606903 -0.524866 5.23931
0.606651 -0.504485 5.23993
0.606399 -0.484103 5.24055
0.606147 -0.463722 5.24117
0.605895 -0.44334 5.24179
0.605644 -0.422959 5.2424
0.605392 -0.402578 5.24302
0.619069 -0.388302 5.34534
0.618813 -0.367513 5.34597
0.618556 -0.346724 5.3466
0.632781 -0.331017 5.45312
0.632519 -0.309803 5.45376
0.632257 -0.28859 5.4544
0.631995 -0.267377 5.45505
0.646797 -0.24969 5.56605
0.646529 -0.228034 5.5667
0.646261 -0.206379 5.56736
0.645994 -0.184724 5.56802
0.645726 -0.163069 5.56867
0.645459 -0.141413 5.56933
0.63016 -0.118884 5.45956
0.629898 -0.0976704 5.4602
0.629636 -0.0764571 5.46084
0.629374 -0.0552438 5.46149
0.613933 0.027479 5.35796
0.599097 0.106958 5.25849
0.598845 0.127339 5.25911
0.584831 0.18338 5.16284
0.584584 0.203369 5.16345
0.584337 0.223358 5.16405
0.584091 0.243348 5.16466
0.567712 0.53149 5.07914
0.56747 0.551102 5.07973
0.579151 0.643137 5.17679
0.578904 0.663127 5.1774
0.563593 0.864899 5.08926
0.573916 2.1451 5.32034
0.680992 -2.51574 5.38733
0.646676 -2.094 5.19219
0.642899 -1.78828 5.20147
0.635849 -1.2176 5.21879
0.634725 0.0277201 5.35847
0.618978 0.147957 5.26023
0.618726 0.168338 5.26085
0.603836 0.263569 5.16577
0.590478 0.276757 5.07189
0.590235 0.29637 5.07248
0.589993 0.315982 5.07308
0.589751 0.335594 5.07368
0.589508 0.355207 5.07427
0.589266 0.374819 5.07487
0.589024 0.394431 5.07546
0.588781 0.414044 5.07606
0.588539 0.433656 5.07665
0.588297 0.453268 5.07725
0.588054 0.472881 5.07784
0.587812 0.492493 5.07844
0.58757 0.512105 5.07903
0.586843 0.570942 5.08082
0.586601 0.590554 5.08141
0.586358 0.610167 5.08201
0.59865 0.683348 5.17851
0.598403 0.703337 5.17911
0.598156 0.723327 5.17972
0.597909 0.743316 5.18033
0.597662 0.763306 5.18093
0.58442 0.767065 5.08677
0.584178 0.786677 5.08737
0.583935 0.806289 5.08796
0.583693 0.825902 5.08856
0.583451 0.845514 5.08915
0.583208 0.865126 5.08975
0.594301 2.14534 5.32085
0.702209 -2.5155 5.38786
0.667061 -2.09376 5.1927
0.663284 -1.78804 5.20197
0.67478 -1.53122 5.31167
0.674523 -1.51043 5.3123
0.656233 -1.21736 5.21929
0.655517 0.0279613 5.35899
0.614686 2.14557 5.32136
0.723425 -2.51525 5.38839
0.723163 -2.49404 5.38903
0.703021 -2.13386 5.29389
0.695573 -1.53098 5.31219
0.67687 -1.23751 5.21918
0.731865 -0.495872 5.67536
0.67631 0.0282025 5.35951
0.620854 2.12305 5.22318
0.74438 -2.49379 5.38956
0.74307 -2.38772 5.39278
0.742808 -2.36651 5.39342
0.741497 -2.26044 5.39664
0.741235 -2.23923 5.39729
0.740973 -2.21802 5.39793
0.72407 -2.15441 5.29378
0.723813 -2.13362 5.29441
0.7233 -2.09204 5.29567
0.707075 -2.03215 5.19557
0.706823 -2.01176 5.19619
0.706571 -1.99138 5.1968
0.706319 -1.971 5.19742
0.706068 -1.95062 5.19804
0.705816 -1.93024 5.19866
0.705564 -1.90986 5.19928
0.705312 -1.88947 5.1999
0.70506 -1.86909 5.20052
0.720474 -1.86336 5.30261
0.720218 -1.84257 5.30324
0.719961 -1.82178 5.30387
0.719704 -1.80099 5.3045
0.719447 -1.7802 5.30514
0.71919 -1.75941 5.30577
0.718933 -1.73862 5.3064
0.718677 -1.71784 5.30703
0.71842 -1.69705 5.30766
0.718163 -1.67626 5.30829
0.717906 -1.65547 5.30892
0.717649 -1.63468 5.30955
0.717392 -1.61389 5.31018
0.716622 -1.55152 5.31208
0.716365 -1.53073 5.31271
0.714053 -1.34363 5.31839
0.713797 -1.32284 5.31902
0.697506 -1.25765 5.21907
0.697254 -1.23727 5.21969
0.681595 -1.17498 5.12358
0.772361 -0.504718 5.79585
0.713192 0.0305937 5.46618
0.640847 2.12329 5.22368
0.765597 -2.49354 5.39009
0.782379 -2.45727 5.5017
0.782112 -2.43561 5.50236
0.781844 -2.41396 5.50302
0.781577 -2.3923 5.50368
0.781042 -2.34899 5.50499
0.780774 -2.32734 5.50565
0.780507 -2.30568 5.50631
0.742551 -1.96706 5.29998
0.758521 -1.92078 5.40747
0.737928 -1.59286 5.31133
0.737671 -1.57207 5.31196
0.734589 -1.3226 5.31953
0.734332 -1.30181 5.32017
0.701341 -1.15475 5.12468
0.701094 -1.13477 5.12529
0.700847 -1.11478 5.1259
0.7006 -1.09479 5.1265
0.700353 -1.0748 5.12711
0.700106 -1.05481 5.12772
0.684931 -1.01674 5.03456
0.684689 -0.997132 5.03515
0.684447 -0.97752 5.03575
0.699118 -0.97485 5.13014
0.698871 -0.95486 5.13075
0.714114 -0.951694 5.22886
0.713862 -0.931312 5.22948
0.729709 -0.927611 5.33152
0.746203 -0.923759 5.43773
0.763384 -0.919746 5.54837
0.763116 -0.898091 5.54903
0.780749 -0.871331 5.66505
0.780476 -0.849215 5.66573
0.839042 -0.831 6.04335
0.83875 -0.807376 6.04407
0.860081 -0.800191 6.18167
0.859783 -0.776017 6.1824
0.859484 -0.751844 6.18314
0.859185 -0.727671 6.18387
0.837291 -0.689257 6.04765
0.836999 -0.665633 6.04837
0.816084 -0.629451 5.91819
0.815799 -0.606352 5.91889
0.815513 -0.583253 5.91959
0.815228 -0.560154 5.92029
0.814942 -0.537055 5.921
0.814657 -0.513957 5.9217
0.814372 -0.490858 5.9224
0.814086 -0.467759 5.9231
0.813515 -0.421561 5.9245
0.793566 -0.391472 5.79984
0.805108 -2.54364 5.49962
0.804038 -2.45702 5.50224
0.803235 -2.39205 5.50422
0.822308 -0.888339 5.78532
0.863253 -0.877974 6.04251
0.885154 -0.87243 6.18007
0.957427 -0.854135 6.63403
0.983989 -0.847411 6.80088
0.858 -0.452744 6.05541
0.836047 -0.375095 5.92648
0.835762 -0.351996 5.92718
0.835477 -0.328897 5.92788
0.835191 -0.305798 5.92858
0.774608 -0.0749403 5.57454
0.774341 -0.0532851 5.5752
0.774073 -0.0316299 5.57586
0.773806 -0.00997459 5.57651
0.773538 0.0116806 5.57717
0.755102 0.0735125 5.46852
0.73432 0.38234 5.37179
0.717879 0.393716 5.27019
0.717627 0.414098 5.27081
0.717376 0.434479 5.27143
0.733293 0.465496 5.37431
0.733036 0.486285 5.37495
0.732779 0.507074 5.37558
0.732523 0.527863 5.37621
0.732009 0.569441 5.37747
0.731752 0.59023 5.3781
0.731495 0.611019 5.37873
0.731238 0.631808 5.37936
0.730981 0.652597 5.37999
0.730725 0.673386 5.38062
0.730468 0.694175 5.38126
0.746977 0.731125 5.48848
0.826767 -2.54339 5.50015
0.825697 -2.45677 5.50278
0.824894 -2.3918 5.50476
0.779769 -1.61317 5.31174
0.845188 -0.910673 5.7852
0.927959 -0.470353 6.33682
0.879876 -0.310726 6.0603
0.835975 -0.16498 5.80783
0.835696 -0.142383 5.80851
0.815699 -0.118874 5.68898
0.815425 -0.0967578 5.68965
0.796 -0.0530339 5.57574
0.795197 0.0119319 5.57771
0.794127 0.0985529 5.58034
0.770552 0.540451 5.48321
0.77029 0.561665 5.48386
0.786101 0.74821 5.60006
0.785833 0.769866 5.60071
0.785565 0.791521 5.60137
0.848425 -2.54314 5.50069
0.847355 -2.45652 5.50332
0.846553 -2.39155 5.50529
0.800562 -1.61293 5.31226
0.800305 -1.59214 5.31289
0.98444 -0.986705 6.47275
1.09657 -0.747941 7.16557
1.09623 -0.719848 7.16642
1.09588 -0.691755 7.16728
1.09553 -0.663661 7.16813
1.09519 -0.635568 7.16898
1.06362 -0.593513 6.98533
1.06329 -0.566159 6.98616
1.06295 -0.538805 6.98699
1.06261 -0.511451 6.98782
1.06227 -0.484097 6.98865
1.06193 -0.456743 6.98948
1.0616 -0.429389 6.99031
1.06058 -0.347327 6.99281
0.974417 -0.175425 6.49737
0.856342 0.0160568 5.81388
0.815785 0.0988041 5.58088
0.8099 0.57522 5.59534
0.870084 -2.54289 5.50123
0.869014 -2.45626 5.50386
0.888627 -2.44054 5.6196
0.888354 -2.41842 5.62027
0.803458 -1.58257 5.21171
1.06626 -1.03305 6.79721
1.09639 -1.03086 6.97273
1.12814 -1.02855 7.15774
1.16166 -1.02611 7.35304
1.1613 -0.997235 7.35391
1.19673 -0.993832 7.56039
1.19636 -0.964133 7.56129
1.19599 -0.934434 7.56219
1.23348 -0.929083 7.78087
1.2331 -0.898511 7.7818
1.19489 -0.845338 7.5649
1.15346 -0.362015 7.37319
1.11808 -0.213843 7.18247
1.05309 0.0330529 6.82956
0.970738 0.0746959 6.35458
0.945441 0.119517 6.21196
0.851194 0.589351 5.71156
0.891743 -2.54263 5.50177
0.890673 -2.45601 5.5044
0.889603 -2.36939 5.50703
0.823843 -1.58234 5.21222
1.22643 -0.993487 7.56113
1.2633 -0.867584 7.78349
1.26292 -0.837012 7.78441
1.26254 -0.80644 7.78534
1.26217 -0.775868 7.78627
1.26103 -0.684152 7.78905
1.26066 -0.65358 7.78998
1.26028 -0.623008 7.79091
1.2599 -0.592435 7.79184
1.25839 -0.470147 7.79555
1.25801 -0.439575 7.79648
1.25763 -0.409003 7.7974
1.25612 -0.286714 7.80112
1.21726 -0.251021 7.58366
1.14409 -0.044957 7.18829
1.11057 0.0362641 7.00579
1.07909 0.0866673 6.83184
1.07843 0.139973 6.83346
0.894563 0.581501 5.83215
0.913402 -2.54238 5.50231
0.933686 -2.50638 5.61869
0.932593 -2.41791 5.62137
0.844228 -1.5821 5.21273
0.843976 -1.56172 5.21335
1.29274 -0.775513 7.78703
1.29237 -0.744941 7.78796
1.33391 -0.733686 8.0201
1.33352 -0.702188 8.02106
1.33196 -0.576193 8.02488
1.33157 -0.544695 8.02584
1.33118 -0.513196 8.0268
1.28783 -0.378076 7.79909
1.28708 -0.316932 7.80095
1.20729 -0.0437344 7.38427
1.17115 0.0396488 7.19155
1.17046 0.0958354 7.19325
1.16976 0.152022 7.19496
0.963004 0.611703 6.09062
0.939289 0.619499 5.9595
0.956899 -2.59458 5.61656
0.978569 -2.55893 5.73795
0.954713 -2.41766 5.62193
0.864361 -1.56148 5.21386
1.36736 -0.890813 8.01611
1.36191 -0.449834 8.02949
1.36152 -0.418335 8.03045
1.31841 -0.377721 7.79986
1.31803 -0.347149 7.80078
1.23652 -0.0722731 7.38411
1.19925 0.0399747 7.19225
1.19855 0.0961613 7.19395
1.23367 0.158716 7.39112
1.15684 0.720749 7.02791
0.519236 1.41608 3.62655
0.979018 -2.59433 5.61711
1.00201 -2.62646 5.73645
1.00173 -2.60386 5.73714
1.00117 -2.55867 5.73851
0.976832 -2.4174 5.62248
0.884745 -1.56124 5.21436
1.44543 -0.915871 8.26246
1.44222 -0.656008 8.27035
1.39185 -0.323474 8.0341
1.34785 -0.28565 7.8034
1.34748 -0.255078 7.80433
1.2654 -0.0719381 7.38483
1.22735 0.0403006 7.19295
1.26326 0.101304 7.39009
1.26255 0.159051 7.39184
0.509209 1.35953 3.49519
1.02377 -2.5584 5.73907
0.998952 -2.41714 5.62303
0.86777 -1.52462 5.02348
1.47792 -0.915494 8.26327
1.4743 -0.623148 8.27214
1.37768 -0.224151 7.80602
1.3773 -0.193579 7.80695
1.33497 -0.160547 7.58933
1.3346 -0.130849 7.59023
1.33424 -0.10115 7.59113
1.29428 -0.0716032 7.38555
1.25544 0.0406265 7.19365
1.25475 0.0968131 7.19535
1.29143 0.159386 7.39256
1.37163 0.265002 7.82086
0.522206 1.37284 3.49591
1.02216 -2.50535 5.62089
0.997896 -2.36814 5.50973
0.887385 -1.52439 5.02397
1.46264 -0.952714 8.01655
1.5108 -0.9476 8.26309
1.5104 -0.915117 8.26408
1.50679 -0.622772 8.27295
1.36357 -0.0711069 7.59277
1.28354 0.0409524 7.19434
1.32102 0.101974 7.39153
1.36064 0.166482 7.59998
1.35954 0.255578 7.60269
1.4463 0.370225 8.0567
1.04538 -2.59356 5.61876
1.04428 -2.50509 5.62144
1.01955 -2.36788 5.51027
0.906758 -1.50455 5.02505
0.906516 -1.48494 5.02565
1.49415 -0.952349 8.01734
1.54289 -0.914741 8.26489
1.53928 -0.622395 8.27376
1.48637 -0.322378 8.03646
1.48598 -0.290879 8.03741
1.48559 -0.259381 8.03837
1.43845 -0.19287 7.80847
1.43807 -0.162298 7.8094
1.39328 -0.0707624 7.59351
1.35168 -0.0420596 7.38787
1.35061 0.0445614 7.3905
1.3499 0.102309 7.39225
1.34918 0.160056 7.394
1.38997 0.196525 7.60162
1.38961 0.226224 7.60253
1.4778 0.37059 8.05749
1.0675 -2.5933 5.61931
1.0664 -2.50484 5.622
1.04121 -2.36763 5.51081
0.907765 -1.49714 4.93483
1.43362 -0.931678 7.56811
1.52487 -0.888986 8.02003
1.57498 -0.881881 8.26668
1.57458 -0.849398 8.26767
1.57418 -0.816915 8.26865
1.57377 -0.784432 8.26964
1.57337 -0.751949 8.27063
1.57297 -0.719466 8.27161
1.57257 -0.686984 8.2726
1.57177 -0.622018 8.27457
1.57137 -0.589535 8.27555
1.57016 -0.492086 8.27851
1.51826 -0.353511 8.03628
1.46941 -0.223087 7.8083
1.42298 -0.0704179 7.59425
1.37949 0.0448963 7.39122
1.37877 0.102644 7.39297
1.41894 0.256267 7.60417
1.50931 0.370955 8.05827
1.08989 -2.61516 5.61919
1.06501 -2.54062 5.50609
1.08852 -2.50458 5.62255
1.06287 -2.36738 5.51135
1.06207 -2.30242 5.51332
1.0618 -2.28076 5.51398
1.06153 -2.25911 5.51463
1.06127 -2.23745 5.51529
1.061 -2.2158 5.51595
1.06073 -2.19414 5.5166
1.05966 -2.10752 5.51923
1.05939 -2.08586 5.51989
0.988431 -1.70273 5.21257
0.927017 -1.49691 4.93531
0.92678 -1.47767 4.93589
0.926542 -1.45842 4.93648
0.926304 -1.43917 4.93706
1.37963 -0.913242 7.16745
1.42014 -0.9076 7.36302
1.55638 -0.888621 8.02082
1.60466 -0.654124 8.27439
1.60426 -0.621641 8.27538
1.60385 -0.589158 8.27636
1.60345 -0.556675 8.27735
1.60305 -0.524192 8.27834
1.60225 -0.459227 8.28031
1.60185 -0.426744 8.28129
1.60145 -0.394261 8.28228
1.49923 -0.161589 7.81092
1.45342 -0.129471 7.59319
1.45305 -0.099772 7.59409
1.45268 -0.0700734 7.59499
1.40837 0.0452313 7.39193
1.40765 0.102979 7.39369
1.40694 0.160726 7.39544
1.40623 0.218473 7.39719
1.44865 0.256612 7.60491
1.54081 0.371321 8.05906
0.73098 1.71339 4.27968
1.08694 -2.56203 5.50597
1.0856 -2.45375 5.50926
1.0848 -2.38879 5.51123
1.08426 -2.34548 5.51254
1.084 -2.32382 5.5132
1.00907 -1.72288 5.21246
0.987412 -1.65124 5.11649
0.966816 -1.60193 5.02354
0.966574 -1.58232 5.02414
0.946745 -1.53519 4.93462
0.946507 -1.51594 4.93521
1.22988 -0.86289 6.3322
1.2618 -0.856707 6.48354
1.36828 -0.890916 6.9837
1.53887 -0.894965 7.78941
1.58165 -0.384279 8.0369
1.58049 -0.289783 8.03977
1.53094 -0.25295 7.8089
1.53056 -0.222378 7.80983
1.48239 -0.0697289 7.59573
1.43831 -0.0410548 7.39003
1.43796 -0.0121811 7.3909
1.4376 0.0166926 7.39178
1.39593 0.042256 7.19714
1.43475 0.247682 7.39879
1.52338 0.358492 7.82746
0.747224 1.71357 4.28008
1.1086 -2.56178 5.50651
1.10726 -2.4535 5.5098
1.08123 -2.27772 5.40446
1.08044 -2.21408 5.40639
1.08018 -2.19287 5.40703
1.10432 -2.21529 5.51703
1.10405 -2.19364 5.51768
1.07939 -2.12923 5.40896
1.10351 -2.15033 5.519
1.10325 -2.12867 5.51966
1.10298 -2.10702 5.52031
1.10271 -2.08536 5.52097
1.05212 -1.77634 5.31342
1.02945 -1.72264 5.21297
1.06734 -1.15341 5.43858
1.04391 -1.1111 5.33361
1.04365 -1.09031 5.33424
1.04339 -1.06952 5.33488
1.02089 -1.02967 5.234
1.02064 -1.00929 5.23462
1.02039 -0.98891 5.23524
0.998761 -0.951382 5.13822
0.998514 -0.931392 5.13883
0.998267 -0.911403 5.13943
0.99802 -0.891414 5.14004
1.01913 -0.887003 5.23833
1.01888 -0.866621 5.23895
1.04082 -0.861627 5.34118
1.08773 -0.872668 5.55778
1.08746 -0.851012 5.55843
1.11227 -0.845367 5.67399
1.16548 -0.856421 5.91981
1.19375 -0.850513 6.05146
1.22334 -0.844331 6.18924
1.47754 -0.878056 7.36533
1.522 -0.871247 7.57213
1.56907 -0.864038 7.7911
1.61861 -0.824893 8.0243
1.61822 -0.793395 8.02525
1.61783 -0.761896 8.02621
1.61355 -0.415412 8.03673
1.61316 -0.383914 8.03768
1.61277 -0.352415 8.03864
1.61238 -0.320916 8.03959
1.51356 -0.188179 7.59287
1.42403 0.0425819 7.19784
1.4216 0.239235 7.20381
1.50695 0.346396 7.60909
0.763669 1.69752 4.27999
1.13026 -2.56153 5.50705
1.12892 -2.45325 5.51034
1.10244 -2.27747 5.40498
1.07292 -1.7761 5.31394
1.64894 -0.730032 8.02795
1.70292 -0.717959 8.27485
1.70252 -0.685476 8.27583
1.70212 -0.652993 8.27682
1.70172 -0.620511 8.27781
1.70132 -0.588028 8.27879
1.70092 -0.555545 8.27978
1.64388 -0.320551 8.04038
1.54289 -0.158136 7.59451
1.49714 -0.127006 7.38883
1.49678 -0.0981322 7.38971
1.49643 -0.0692585 7.39059
1.45282 -0.0132788 7.19684
1.41117 0.0671086 7.01412
1.40948 0.203879 7.01827
1.4497 0.239561 7.20451
1.53666 0.346741 7.60983
1.15191 -2.56128 5.50759
1.15058 -2.453 5.51088
1.12392 -2.29844 5.40487
1.11789 -1.81053 5.41968
1.7326 -0.490202 8.28256
1.67694 -0.44618 8.03734
1.67655 -0.414681 8.0383
1.67578 -0.351684 8.04021
1.62342 -0.313031 7.80933
1.62305 -0.282458 7.81026
1.62267 -0.251886 7.81118
1.57333 -0.217188 7.59344
1.57296 -0.18749 7.59435
1.48196 -0.0972328 7.19498
1.43954 -0.0146361 7.01231
1.3993 0.0637249 6.839
1.4365 0.23155 7.01978
1.47745 0.26798 7.20607
1.56636 0.347085 7.61057
1.17357 -2.56102 5.50813
1.17224 -2.45275 5.51142
1.1709 -2.34447 5.5147
1.16474 -1.8464 5.52982
1.76549 -0.522308 8.28238
1.70767 -0.382817 8.04004
1.654 -0.312676 7.81009
1.55561 -0.184083 7.38852
1.46724 -0.0416728 7.01216
1.38803 0.0605104 6.67264
1.54919 0.335643 7.40429
1.19523 -2.56077 5.50867
1.19389 -2.4525 5.51196
1.19256 -2.34422 5.51524
1.1864 -1.84615 5.53036
2.2562 -2.42368 10.1035
2.25571 -2.3837 10.1047
2.1683 -2.25977 9.73747
1.74073 -0.508446 8.037
1.68533 -0.373466 7.809
1.63384 -0.305595 7.59222
1.5392 -0.180861 7.19382
1.45393 -0.0422672 6.8371
1.3087 0.0753764 6.21952
1.53295 0.324818 7.20917
1.21689 -2.56052 5.50921
1.21555 -2.45224 5.51249
1.21422 -2.34397 5.51578
1.26456 -1.92281 5.76447
2.39169 -2.51707 10.5023
2.39066 -2.43391 10.5048
1.71704 -0.464827 7.80697
1.71667 -0.434255 7.8079
1.66464 -0.394347 7.59026
1.61479 -0.298908 7.38645
1.52365 -0.177808 7.00937
1.36892 -0.0939525 6.35919
1.36862 -0.0692037 6.35994
1.33437 -0.0452097 6.21646
1.33317 0.0514836 6.21939
1.40015 0.260567 6.52119
1.26684 -2.61311 5.6236
1.23721 -2.45199 5.51303
1.23641 -2.38703 5.51501
1.23587 -2.34372 5.51632
1.31779 -1.96356 5.88962
2.6528 -2.72873 11.4028
2.65169 -2.63834 11.4056
1.86617 -0.781041 8.27692
1.64403 -0.327447 7.3863
1.64367 -0.298573 7.38717
1.50889 -0.174912 6.83438
1.35914 -0.0932759 6.21559
1.32559 -0.0456562 6.07937
1.29296 0.046045 5.95061
1.38939 0.252819 6.37032
1.26021 -2.56002 5.51029
1.25887 -2.45174 5.51357
1.28678 -2.43592 5.62952
1.31618 -2.44201 5.74982
1.6516 -2.45544 7.12686
1.60506 -2.33814 6.94515
2.58285 -2.70436 10.9328
2.69689 -2.63782 11.4067
1.89866 -0.780664 8.27773
1.7782 -0.464118 7.8085
1.72442 -0.423356 7.59084
1.62453 -0.264163 7.19336
1.49488 -0.172161 6.66814
1.34922 -0.0453821 6.07996
1.31607 0.0463129 5.95118
1.37914 0.245431 6.22647
1.28187 -2.55977 5.51083
1.28053 -2.45149 5.51411
1.27973 -2.38653 5.51609
1.72925 -2.55005 7.32026
1.7289 -2.52118 7.32114
1.78054 -2.56131 7.52668
1.78017 -2.53161 7.52758
2.74488 -2.86326 11.401
2.74376 -2.77288 11.4037
2.74209 -2.6373 11.4078
1.93114 -0.780287 8.27854
1.75449 -0.45271 7.59067
1.65298 -0.291931 7.19321
1.6064 -0.231564 7.00976
1.52087 -0.171859 6.66878
1.40779 -0.116888 6.21606
1.40749 -0.092715 6.2168
1.4072 -0.0685417 6.21753
1.37285 -0.045108 6.08055
1.37168 0.0493876 6.08342
1.40302 0.269885 6.2278
1.30353 -2.55952 5.51137
1.27375 -2.40278 5.40535
1.30139 -2.38627 5.51662
1.75813 -2.54971 7.32098
1.80987 -2.53127 7.52832
2.79008 -2.86274 11.4021
2.78896 -2.77235 11.4048
2.78729 -2.63677 11.409
1.90136 -0.758608 8.03327
1.73173 -0.413063 7.38583
1.73138 -0.384189 7.3867
1.68177 -0.347791 7.19221
1.68107 -0.291605 7.19391
1.54686 -0.171558 6.66943
1.46855 -0.142302 6.36015
1.46702 -0.0185576 6.36391
1.46671 0.00619131 6.36466
1.42988 0.0526053 6.2218
1.42719 0.270165 6.2284
1.29497 -2.40254 5.40588
1.32304 -2.38602 5.51716
1.73694 -2.53874 7.1264
1.78737 -2.57825 7.32082
1.83958 -2.53093 7.52906
2.96831 -2.98882 11.9143
2.96772 -2.94157 11.9158
2.96656 -2.84708 11.9186
2.83305 -2.68144 11.4087
2.83249 -2.63625 11.4101
1.93286 -0.758242 8.03406
1.70917 -0.291279 7.19461
1.57285 -0.171256 6.67008
1.45525 -0.0438076 6.21947
1.45436 0.0287124 6.22167
1.45137 0.270445 6.22901
1.31618 -2.40229 5.40641
1.3447 -2.38577 5.5177
1.76538 -2.56651 7.12625
1.8166 -2.60679 7.32066
1.86928 -2.53058 7.5298
3.01556 -2.98827 11.9155
3.0144 -2.89378 11.9184
2.87769 -2.63572 11.4112
1.8469 -0.718964 7.58478
1.73727 -0.290953 7.19531
1.51836 -0.166477 6.36063
1.51652 -0.0179834 6.36514
1.47823 0.0531661 6.22301
1.47585 0.246552 6.22888
1.3374 -2.40205 5.40693
1.36609 -2.36387 5.5189
1.79383 -2.59428 7.1261
1.79348 -2.56618 7.12695
1.89862 -2.50054 7.53144
3.06282 -2.98772 11.9167
3.06165 -2.89323 11.9196
2.92289 -2.6352 11.4123
1.82194 -0.700795 7.37922
1.81944 -0.498679 7.38536
1.76745 -0.459187 7.1909
1.7671 -0.431093 7.19175
1.76676 -0.403 7.1926
1.71752 -0.367065 7.00833
1.71718 -0.339711 7.00916
1.71651 -0.285003 7.01082
1.71617 -0.257649 7.01165
1.66949 -0.226362 6.83675
1.54311 -0.166189 6.36125
1.5039 -0.06742 6.21994
1.50331 -0.0190734 6.22141
1.50241 0.0534465 6.22361
1.50002 0.246833 6.22948
1.38882 -2.45024 5.51681
1.55974 -2.62951 6.14277
1.82227 -2.62205 7.12594
1.92869 -2.52989 7.53128
3.11007 -2.98717 11.9179
3.10949 -2.93993 11.9193
3.10891 -2.89268 11.9207
2.96809 -2.63467 11.4135
1.79833 -0.683607 7.18477
1.74522 -0.394102 7.00818
1.74454 -0.339394 7.00984
1.74387 -0.284686 7.0115
1.56786 -0.165902 6.36187
1.52808 -0.0671396 6.22054
1.52748 -0.018793 6.22201
1.52689 0.0295536 6.22348
1.5239 0.271287 6.23081
1.47578 -2.55316 5.75033
1.70956 -2.82065 6.59222
1.85072 -2.64981 7.12579
2.01868 -2.60168 7.74888
3.01608 -2.86012 11.4077
3.01497 -2.76973 11.4105
3.01385 -2.67934 11.4132
3.01329 -2.63415 11.4146
1.77596 -0.667324 7.00056
1.77325 -0.448492 7.0072
1.77291 -0.421138 7.00803
1.77258 -0.393784 7.00886
1.72413 -0.332354 6.83484
1.6781 -0.273996 6.66951
1.67778 -0.248009 6.6703
1.67745 -0.222023 6.67109
1.55345 -0.163552 6.21821
1.47921 -0.067306 5.95171
1.47864 -0.0211082 5.95311
1.44395 0.0228723 5.82852
1.40855 0.241909 5.71459
1.88506 -3.15517 7.11114
1.88368 -3.04279 7.11455
1.87916 -2.67758 7.12564
1.87882 -2.64949 7.12649
2.04888 -2.57076 7.75057
3.06128 -2.85959 11.4089
3.06017 -2.76921 11.4116
1.75078 -0.332045 6.8355
1.61767 -0.190077 6.36235
1.57763 -0.163272 6.21881
1.53941 -0.137685 6.0818
1.53912 -0.114061 6.08252
1.5026 -0.090137 5.95158
1.50231 -0.0670381 5.95228
1.46739 -0.044656 5.82702
1.37091 0.0382224 5.48256
1.43067 0.242166 5.71515
1.96884 -3.24034 7.30498
1.91177 -3.04247 7.11525
1.90796 -2.73344 7.12463
1.90761 -2.70535 7.12548
1.90726 -2.67725 7.12634
2.07983 -2.60097 7.7504
3.10649 -2.85907 11.41
3.10537 -2.76868 11.4127
1.82763 -0.420504 7.0094
1.77711 -0.305083 6.83697
1.77678 -0.278431 6.83778
1.77645 -0.251778 6.83859
1.77612 -0.225125 6.8394
1.72911 -0.195434 6.67317
1.48999 -0.0443938 5.82758
1.39213 0.0384684 5.48309
2.05741 -3.33038 7.5099
1.93987 -3.04214 7.11595
1.9364 -2.76121 7.12448
1.93605 -2.73311 7.12533
2.11079 -2.63119 7.75023
2.11003 -2.57005 7.75209
3.15169 -2.85855 11.4111
3.29793 -2.89049 11.9255
1.80541 -0.438037 6.83359
1.80475 -0.384732 6.83521
1.75703 -0.35105 6.66909
1.75639 -0.299077 6.67067
1.80344 -0.278121 6.83845
1.7551 -0.195132 6.67382
1.5855 -0.0426416 6.08585
2.0266 -3.23967 7.30642
1.96797 -3.04181 7.11665
1.91074 -2.7176 6.94102
1.9104 -2.69025 6.94185
2.07757 -2.55787 7.53408
2.14061 -2.56969 7.75285
3.19689 -2.85802 11.4122
3.19633 -2.81283 11.4136
3.19577 -2.76763 11.415
1.5759 -0.412718 5.94349
1.61263 -0.325854 6.07783
1.61087 -0.184111 6.08213
2.05548 -3.23933 7.30714
1.99607 -3.04149 7.11735
1.88672 -2.70289 6.76616
1.93843 -2.74464 6.94087
1.93809 -2.71729 6.9417
2.10764 -2.58722 7.53392
2.17118 -2.56934 7.75361
0.794044 -0.325005 3.18376
1.59957 -0.458648 5.94267
1.59929 -0.435549 5.94337
1.599 -0.41245 5.94407
1.63625 -0.32558 6.07842
1.63538 -0.254709 6.08057
1.67524 -0.23467 6.21902
1.6345 -0.183837 6.08272
2.02555 -3.15354 7.11464
2.02416 -3.04116 7.11805
1.96647 -2.79903 6.93989
1.96613 -2.77168 6.94072
0.756962 -0.322663 3.01749
0.756821 -0.311241 3.01784
0.707831 0.0907582 2.88076
2.64758 -4.18106 9.02896
1.99687 -3.0449 6.9331
1.99585 -2.96284 6.9356
1.99416 -2.82607 6.93975
1.99382 -2.79872 6.94058
2.37436 -2.4645 8.2378
2.37395 -2.43202 8.23878
2.37355 -2.39953 8.23977
0.740812 -0.303634 2.92686
0.740676 -0.292576 2.9272
0.719597 0.0150904 2.87873
0.719463 0.0259181 2.87905
0.710442 0.0784379 2.85264
2.4233 -3.79592 8.19819
2.02422 -3.04458 6.93379
2.02321 -2.96252 6.93628
2.02186 -2.85311 6.9396
2.02152 -2.82575 6.94043
2.40684 -2.46412 8.23861
2.40604 -2.39916 8.24058
0.752008 -0.314564 2.9268
0.742185 -0.235471 2.89999
0.731362 -0.0605773 2.87669
0.730827 -0.0172668 2.87801
