5217
-0.84158 -0.0554636 -1.37151
-0.84342 -0.00722603 -1.23321
-0.859881 -0.717462 -1.50124
-0.859653 -0.668789 -1.46112
-0.859542 -0.645099 -1.4416
-0.859376 -0.635868 -1.44204
-0.852583 -0.0986336 -1.27945
-0.852538 -0.081643 -1.26312
-0.851551 -0.0560506 -1.29887
-0.852222 -0.00818598 -1.20075
-0.869512 -0.711532 -1.4801
-0.869144 -0.677935 -1.46068
-0.868977 -0.668621 -1.46112
-0.868758 -0.63081 -1.42198
-0.868593 -0.621659 -1.42241
-0.868428 -0.612509 -1.42284
-0.868264 -0.603359 -1.42327
-0.868099 -0.594208 -1.42371
-0.861634 -0.0979946 -1.22889
-0.860506 -0.056254 -1.26431
-0.860294 -0.0234849 -1.23241
-0.860381 -0.00803888 -1.20074
-0.878971 -0.705708 -1.45935
-0.878357 -0.663228 -1.44071
-0.87726 -0.594043 -1.4237
-0.870038 -0.0976895 -1.21256
-0.869773 -0.0895663 -1.22927
-0.869177 -0.0564509 -1.23084
-0.868708 -0.0237665 -1.21606
-0.868539 -0.0078918 -1.20073
-0.888295 -0.70554 -1.45934
-0.887598 -0.663062 -1.4407
-0.886914 -0.621329 -1.42239
-0.886749 -0.612179 -1.42282
-0.886585 -0.603028 -1.42326
-0.878603 -0.113688 -1.19572
-0.878457 -0.105539 -1.1961
-0.878164 -0.0892397 -1.19687
-0.878017 -0.0810902 -1.19726
-0.87787 -0.0729407 -1.19764
-0.877577 -0.0566417 -1.19841
-0.876991 -0.0240437 -1.19996
-0.876698 -0.00774471 -1.20073
-0.932256 -2.52555 -3.97013
-0.897786 -0.714685 -1.45889
-0.897619 -0.705372 -1.45933
-0.89684 -0.662895 -1.44069
-0.896239 -0.630314 -1.42195
-0.895975 -0.616441 -1.40268
-0.886891 -0.121352 -1.17952
-0.886029 -0.0727936 -1.19764
-0.885736 -0.0564946 -1.19841
-0.885296 -0.0320461 -1.19956
-0.884857 -0.00759763 -1.20072
-0.950713 -2.47988 -3.88096
-0.907613 -0.742458 -1.45756
-0.907111 -0.714517 -1.45888
-0.906413 -0.681191 -1.43981
-0.905729 -0.64845 -1.42108
-0.9054 -0.630149 -1.42194
-0.895131 -0.129293 -1.17913
-0.894263 -0.0726038 -1.2137
-0.893894 -0.0563475 -1.1984
-0.893015 -0.00745055 -1.20071
-0.968499 -2.43586 -3.79504
-0.916435 -0.714349 -1.45887
-0.914889 -0.648285 -1.42107
-0.91456 -0.629984 -1.42193
-0.902486 -0.0724555 -1.21369
-0.902053 -0.0562004 -1.19839
-0.901174 -0.00730345 -1.2007
-0.987486 -2.43552 -3.79502
-0.925561 -0.717783 -1.43805
-0.924897 -0.680858 -1.43979
-0.924731 -0.671627 -1.44023
-0.92405 -0.648119 -1.42106
-0.923721 -0.629819 -1.42192
-0.911613 -0.145174 -1.17835
-0.911261 -0.136633 -1.16317
-0.911117 -0.128609 -1.16355
-0.910505 -0.0723524 -1.19761
-0.910065 -0.0479038 -1.19877
-0.909919 -0.0397543 -1.19915
-0.909332 -0.00715636 -1.20069
-1.01107 -2.52413 -3.97005
-0.9353 -0.74531 -1.43673
-0.934802 -0.717616 -1.43804
-0.93447 -0.699154 -1.43891
-0.934304 -0.689923 -1.43935
-0.933704 -0.675405 -1.41975
-0.93321 -0.647954 -1.42105
-0.932881 -0.629654 -1.42192
-0.919854 -0.153114 -1.17796
-0.919006 -0.12044 -1.16392
-0.918663 -0.0722053 -1.19761
-0.918077 -0.0396073 -1.19915
-0.917491 -0.0070093 -1.20069
-0.915039 0.0443009 -1.11172
-0.914899 0.0520855 -1.11209
-0.914986 0.0609073 -1.12716
-0.944016 -0.739292 -1.41672
-0.943523 -0.711841 -1.41801
-0.943358 -0.702691 -1.41845
-0.943029 -0.68439 -1.41931
-0.942371 -0.647789 -1.42104
-0.942042 -0.629489 -1.42191
-0.927616 -0.152392 -1.1624
-0.926715 -0.119973 -1.14859
-0.926495 -0.0721048 -1.18177
-0.925596 -0.0400542 -1.16771
-0.925332 -0.00741425 -1.18483
-0.923261 0.0375194 -1.12604
-0.922838 0.0610488 -1.12716
-0.953177 -0.739127 -1.41671
-0.952683 -0.711676 -1.41801
-0.95219 -0.684225 -1.4193
-0.951531 -0.647624 -1.42103
-0.951202 -0.629323 -1.4219
-0.934973 -0.135755 -1.14783
-0.934687 -0.119829 -1.14858
-0.93459 -0.0719589 -1.18177
-0.933255 -0.0402007 -1.15235
-0.933427 -0.00726828 -1.18482
-0.930972 0.0455041 -1.12641
-0.930831 0.0533473 -1.12678
-0.962337 -0.738962 -1.4167
-0.961172 -0.706003 -1.39833
-0.960846 -0.687861 -1.39919
-0.960683 -0.678791 -1.39962
-0.96003 -0.642508 -1.40133
-0.959704 -0.624366 -1.40219
-0.944285 -0.160762 -1.17755
-0.942945 -0.135611 -1.14782
-0.942658 -0.119686 -1.14858
-0.942239 -0.0718611 -1.16618
-0.940798 -0.040345 -1.13722
-0.941522 -0.00712234 -1.18482
-0.938965 0.0378026 -1.12603
-0.971498 -0.738797 -1.41669
-0.971004 -0.711346 -1.41799
-0.970675 -0.693045 -1.41885
-0.969111 -0.642344 -1.40132
-0.96806 -0.619495 -1.38282
-0.952381 -0.160617 -1.17755
-0.95063 -0.119542 -1.14857
-0.950561 -0.0877645 -1.16541
-0.950416 -0.0797404 -1.16579
-0.950272 -0.0717163 -1.16617
-0.948368 -0.0483303 -1.12194
-0.948227 -0.0404871 -1.12232
-0.949472 0.00110994 -1.18519
-0.948829 0.00852495 -1.16996
-0.980658 -0.738632 -1.41668
-0.98 -0.70203 -1.41841
-0.977386 -0.637317 -1.38196
-0.977062 -0.619332 -1.38281
-0.959604 -0.143789 -1.16275
-0.958745 -0.127361 -1.14818
-0.958594 -0.0876197 -1.1654
-0.957599 -0.0636582 -1.15119
-0.955686 -0.0484118 -1.10727
-0.957151 -0.00737847 -1.1692
-0.956862 0.00866978 -1.16995
-0.953492 0.0440917 -1.0972
-0.98949 -0.720166 -1.41754
-0.989161 -0.701865 -1.4184
-0.986388 -0.637155 -1.38195
-0.986784 -0.614804 -1.40259
-0.967003 -0.143143 -1.14742
-0.966095 -0.126845 -1.13309
-0.966001 -0.0874031 -1.15006
-0.964958 -0.0636248 -1.13607
-0.962895 -0.048492 -1.09281
-0.963649 -0.0245178 -1.12304
-0.964282 0.00815133 -1.15458
-0.961227 0.0442312 -1.09719
-0.998815 -0.729151 -1.4171
-0.998321 -0.7017 -1.4184
-0.996354 -0.641853 -1.4013
-0.994906 -0.610015 -1.38322
-0.975814 -0.151523 -1.16235
-0.974006 -0.126703 -1.13308
-0.973973 -0.0872594 -1.15005
-0.970631 -0.0483526 -1.0928
-0.970852 -0.024777 -1.10836
-0.972254 0.00829504 -1.15457
-0.968963 0.0443706 -1.09718
-0.969312 0.0608536 -1.1124
-1.0089 -0.725515 -1.43753
-1.00857 -0.707052 -1.43841
-1.00543 -0.641689 -1.40129
-1.00391 -0.609853 -1.38321
-0.98309 -0.150819 -1.14703
-0.982202 -0.142365 -1.13232
-0.981186 -0.126195 -1.11821
-0.981207 -0.0870472 -1.13494
-0.979346 -0.0635595 -1.10651
-0.976861 -0.0410349 -1.06488
-0.980226 0.00843876 -1.15456
-0.976022 0.0436087 -1.0829
-0.977106 0.0609941 -1.1124
-1.01781 -0.706886 -1.4384
-1.01452 -0.641525 -1.40128
-1.01291 -0.60969 -1.3832
-0.990113 -0.142222 -1.13232
-0.989038 -0.126054 -1.1182
-0.989118 -0.0869045 -1.13493
-0.988192 -0.078995 -1.12042
-0.984483 -0.0408975 -1.06488
-0.988198 0.00858248 -1.15455
-0.982264 0.0419816 -1.05497
-0.98284 0.0504721 -1.06919
-0.983424 0.0590874 -1.08362
-1.02705 -0.706719 -1.43839
-1.0236 -0.641362 -1.40127
-1.02191 -0.609528 -1.38319
-0.998025 -0.14208 -1.13231
-0.996052 -0.125555 -1.10355
-0.996044 -0.0788535 -1.12042
-0.995072 -0.071063 -1.10613
-0.991327 -0.0410304 -1.05104
-0.996313 0.000763312 -1.15417
-0.995324 0.00806861 -1.13941
-0.989832 0.0421181 -1.05497
-0.990326 0.0582236 -1.06955
-1.03646 -0.715784 -1.43794
-1.03268 -0.641198 -1.40126
-1.03219 -0.613986 -1.40255
-1.00502 -0.141457 -1.11744
-1.00385 -0.125415 -1.10354
-1.00287 -0.0709225 -1.10612
-0.998894 -0.040894 -1.05103
-1.00338 0.000308715 -1.13903
-0.997535 0.0346955 -1.0546
-1.04714 -0.72131 -1.45831
-1.04537 -0.697155 -1.43881
-1.04504 -0.678692 -1.43968
-1.04176 -0.641034 -1.40125
-1.04264 -0.618522 -1.42225
-1.01288 -0.141315 -1.11744
-1.01164 -0.125274 -1.10354
-1.00973 -0.0708361 -1.09167
-1.00646 -0.0407576 -1.05102
-1.01143 -0.00745121 -1.13864
-1.05646 -0.721141 -1.4583
-1.05444 -0.687757 -1.43923
-1.05084 -0.640871 -1.40125
-1.0518 -0.618356 -1.42224
-1.02295 -0.1501 -1.14699
-1.01943 -0.125134 -1.10353
-1.01648 -0.0707508 -1.07743
-1.01403 -0.0406211 -1.05102
-1.01733 -0.00836478 -1.10905
-1.01253 0.0425274 -1.05495
-1.01414 0.0596411 -1.08359
-1.06579 -0.720973 -1.45829
-1.06529 -0.693032 -1.45961
-1.06146 -0.645642 -1.42093
-1.06096 -0.618191 -1.42223
-1.03319 -0.151071 -1.17785
-1.02939 -0.125704 -1.13303
-1.02214 -0.0707205 -1.04958
-1.02061 -0.0407552 -1.03738
-1.02499 -0.000439703 -1.10941
-1.02209 0.0444393 -1.08286
-1.02283 0.0608007 -1.09786
-1.07511 -0.720805 -1.45828
-1.07461 -0.692864 -1.4596
-1.07226 -0.650498 -1.44096
-1.07177 -0.622805 -1.44227
-1.04251 -0.151494 -1.19364
-1.03965 -0.126292 -1.16343
-1.02971 -0.0705841 -1.04957
-1.0271 -0.0408872 -1.02393
-1.03278 -0.0002992 -1.1094
-1.03085 0.0454863 -1.09713
-1.03736 0.0674059 -1.18816
-1.08494 -0.748578 -1.45695
-1.08477 -0.739265 -1.45739
-1.08444 -0.720637 -1.45827
-1.08151 -0.650332 -1.44095
-1.08101 -0.622638 -1.44226
-1.0533 -0.15251 -1.22597
-1.04894 -0.12652 -1.17898
-1.03728 -0.0704477 -1.04957
-1.03564 -0.0404843 -1.03736
-1.04057 -0.000158697 -1.10939
-1.047 0.0523906 -1.20326
-1.04928 0.0710192 -1.23654
-1.09443 -0.757724 -1.4565
-1.09376 -0.720469 -1.45826
-1.09359 -0.711155 -1.4587
-1.09259 -0.655273 -1.46134
-1.09209 -0.627332 -1.46267
-1.0602 -0.151776 -1.20966
-1.05839 -0.126751 -1.19478
-1.04484 -0.0703113 -1.04956
-1.04202 -0.0406183 -1.02392
-1.0496 0.000568695 -1.12407
-1.05772 0.0628897 -1.23614
-1.05895 0.0723625 -1.25317
-1.10181 -0.751543 -1.43614
-1.10165 -0.742311 -1.43657
-1.10342 -0.738928 -1.45737
-1.10292 -0.710987 -1.45869
-1.10275 -0.701673 -1.45913
-1.10191 -0.655105 -1.46134
-1.10141 -0.627164 -1.46266
-1.06988 -0.152211 -1.22595
-1.06669 -0.134754 -1.19439
-1.06654 -0.126604 -1.19477
-1.05363 -0.0701172 -1.06337
-1.05066 -0.0402134 -1.03735
-1.05745 0.000710241 -1.12407
-1.11412 -0.707122 -1.47987
-1.11395 -0.697724 -1.48032
-1.11378 -0.688327 -1.48076
-1.1114 -0.664251 -1.46089
-1.11124 -0.654937 -1.46133
-1.11073 -0.626996 -1.46265
-1.07817 -0.152062 -1.22595
-1.0747 -0.126457 -1.19476
-1.05998 -0.0700384 -1.04954
-1.05694 -0.0403493 -1.02391
-1.0653 0.000851803 -1.12406
-1.12536 -0.693703 -1.50188
-1.1274 -0.689781 -1.52386
-1.12723 -0.680211 -1.52431
-1.12654 -0.641931 -1.52612
-1.12636 -0.632361 -1.52657
-1.124 -0.617839 -1.50547
-1.12383 -0.608356 -1.50592
-1.12366 -0.598873 -1.50637
-1.12349 -0.58939 -1.50682
-1.12116 -0.575386 -1.48608
-1.121 -0.565988 -1.48653
-1.12083 -0.55659 -1.48697
-1.12066 -0.547193 -1.48742
-1.12049 -0.537795 -1.48786
-1.12032 -0.528398 -1.4883
-1.12229 -0.523008 -1.50995
-1.11998 -0.509602 -1.48919
-1.11981 -0.500205 -1.48964
-1.11964 -0.490807 -1.49008
-1.12161 -0.485076 -1.51175
-1.11931 -0.472012 -1.49097
-1.11914 -0.462614 -1.49141
-1.11897 -0.453217 -1.49186
-1.1188 -0.443819 -1.4923
-1.11863 -0.434421 -1.49275
-1.11846 -0.425024 -1.49319
-1.11829 -0.415626 -1.49364
-1.11604 -0.403299 -1.47321
-1.11587 -0.393985 -1.47365
-1.1157 -0.384671 -1.47409
-1.11349 -0.372727 -1.45401
-1.11333 -0.363495 -1.45445
-1.11115 -0.351841 -1.43472
-1.11099 -0.342691 -1.43515
-1.10886 -0.331319 -1.41576
-1.10676 -0.320144 -1.39671
-1.1066 -0.311151 -1.39714
-1.09959 -0.226382 -1.34437
-1.09943 -0.217617 -1.34479
-1.09748 -0.207761 -1.32696
-1.08286 -0.12631 -1.19475
-1.06754 -0.069902 -1.04954
-1.06312 -0.0404833 -1.01065
-1.07174 0.0004033 -1.10937
-1.13715 -0.699179 -1.5234
-1.13862 -0.656636 -1.5476
-1.10225 -0.18838 -1.29217
-1.10032 -0.179002 -1.27521
-1.09843 -0.169776 -1.25852
-1.09489 -0.160042 -1.22554
-1.09474 -0.151763 -1.22593
-1.09294 -0.142969 -1.21002
-1.09117 -0.134312 -1.19436
-1.08942 -0.12579 -1.17894
-1.07239 -0.0698843 -1.02248
-1.06922 -0.0406155 -0.997586
-1.07667 -0.000612333 -1.08064
-1.35178 -1.52303 -3.30114
-1.35147 -1.50621 -3.30194
-1.35117 -1.48938 -3.30273
-1.35087 -1.47256 -3.30353
-1.3582 -1.47832 -3.37233
-1.3579 -1.46122 -3.37314
-1.35759 -1.44412 -3.37394
-1.35728 -1.42702 -3.37475
-1.14916 -0.704755 -1.5453
-1.15075 -0.661867 -1.56994
-1.15058 -0.652119 -1.5704
-1.14518 -0.612875 -1.52746
-1.14501 -0.603305 -1.52791
-1.14077 -0.494217 -1.51128
-1.1406 -0.484734 -1.51173
-1.14043 -0.475251 -1.51218
-1.14026 -0.465768 -1.51263
-1.09588 -0.125278 -1.16338
-1.07985 -0.0697498 -1.02248
-1.07657 -0.0404829 -0.997579
-1.08017 -0.00965329 -1.03874
-1.36923 -1.55638 -3.29954
-1.36892 -1.53955 -3.30033
-1.37409 -1.40961 -3.37554
-1.37379 -1.39251 -3.37635
-1.37348 -1.37541 -3.37716
-1.16666 -0.722481 -1.61355
-1.16847 -0.678527 -1.63955
-1.16259 -0.637675 -1.59409
-1.15946 -0.603198 -1.57269
-1.15674 -0.588677 -1.55077
-1.10953 -0.150886 -1.20962
-1.10224 -0.124774 -1.14805
-1.08587 -0.0696753 -1.00923
-1.08393 -0.0403503 -0.997572
-1.08624 -0.0100075 -1.02529
-1.37841 -1.54917 -3.23297
-1.38516 -1.5056 -3.30191
-1.38486 -1.48878 -3.3027
-1.38456 -1.47195 -3.3035
-1.38425 -1.45513 -3.30429
-1.38395 -1.4383 -3.30509
-1.39183 -1.4435 -3.37391
-1.39152 -1.4264 -3.37472
-1.3906 -1.3751 -3.37714
-1.37394 -1.30081 -3.24471
-1.366 -1.2654 -3.1816
-1.1852 -0.74125 -1.68582
-1.17797 -0.648255 -1.64097
-1.17226 -0.627656 -1.59455
-1.17208 -0.617815 -1.59501
-1.16905 -0.593273 -1.57314
-1.1085 -0.124278 -1.13295
-1.09328 -0.0695418 -1.00923
-1.09128 -0.0402177 -0.997565
-1.0937 -0.00987307 -1.02528
-1.39528 -1.56543 -3.23217
-1.39439 -1.51576 -3.23452
-1.40231 -1.52212 -3.3011
-1.40833 -1.40899 -3.37551
-1.40803 -1.39189 -3.37632
-1.40772 -1.37479 -3.37713
-1.39022 -1.28395 -3.24548
-1.20485 -0.761156 -1.76246
-1.20109 -0.723031 -1.73788
-1.19777 -0.706317 -1.71281
-1.19758 -0.695989 -1.7133
-1.1974 -0.685661 -1.71378
-1.19721 -0.675333 -1.71427
-1.18765 -0.628014 -1.6419
-1.18459 -0.612842 -1.6187
-1.18158 -0.597956 -1.59594
-1.11832 -0.13245 -1.14766
-1.11641 -0.124135 -1.13294
-1.10068 -0.0694082 -1.00922
-1.09863 -0.0400852 -0.997558
-1.10116 -0.00973857 -1.02527
-1.41186 -1.56513 -3.23216
-1.41126 -1.53202 -3.23372
-1.41096 -1.51546 -3.23451
-1.41582 -1.33675 -3.30983
-1.41552 -1.31992 -3.31062
-1.4068 -1.28365 -3.24546
-1.22222 -0.775046 -1.81619
-1.21839 -0.746645 -1.79005
-1.21078 -0.681117 -1.73984
-1.26635 -0.677087 -2.201
-1.28927 -0.662369 -2.39376
-1.2888 -0.63629 -2.39499
-1.28857 -0.623251 -2.39561
-1.29344 -0.616948 -2.43724
-1.30382 -0.617397 -2.5231
-1.31474 -0.617871 -2.61354
-1.33241 -0.625874 -2.75828
-1.1283 -0.140747 -1.16259
-1.12432 -0.123993 -1.13294
-1.10969 -0.0692119 -1.02245
-1.10599 -0.0399526 -0.997551
-1.10848 -0.00215314 -1.02562
-1.42843 -1.56483 -3.23214
-1.42784 -1.53172 -3.23371
-1.23661 -0.78211 -1.84389
-1.23622 -0.760378 -1.84492
-1.22809 -0.693232 -1.79256
-1.25307 -0.660311 -1.99915
-1.26979 -0.67509 -2.13042
-1.29236 -0.660609 -2.31418
-1.13857 -0.15726 -1.17737
-1.13441 -0.140125 -1.14727
-1.13238 -0.131752 -1.13256
-1.13223 -0.12385 -1.13293
-1.12784 -0.0842438 -1.10527
-1.12412 -0.0764829 -1.07697
-1.11715 -0.0690774 -1.02244
-1.11334 -0.03982 -0.997545
-1.1176 -0.0014715 -1.03906
-1.11747 0.00603308 -1.03941
-1.44501 -1.56453 -3.23213
-1.44441 -1.53142 -3.23369
-1.43039 -1.21533 -3.18385
-1.4301 -1.19903 -3.18462
-1.25521 -0.796889 -1.90106
-1.24671 -0.73845 -1.84593
-1.25322 -0.685917 -1.90631
-1.25302 -0.67482 -1.90683
-1.25678 -0.67002 -1.93694
-1.25658 -0.658804 -1.93747
-1.31514 -0.648859 -2.39435
-1.37289 -0.521772 -2.8668
-1.37262 -0.50687 -2.86751
-1.13822 -0.123364 -1.11806
-1.13363 -0.0763317 -1.09119
-1.12237 -0.0394152 -1.0106
-1.12512 -0.00133605 -1.03905
-1.46159 -1.56424 -3.23211
-1.46099 -1.53112 -3.23368
-1.46069 -1.51456 -3.23446
-1.27462 -0.812311 -1.96072
-1.25759 -0.738254 -1.84592
-1.26841 -0.692251 -1.93587
-1.28936 -0.679732 -2.09604
-1.35426 -0.491941 -2.61942
-1.14412 -0.122886 -1.10341
-1.14384 -0.107317 -1.10415
-1.1437 -0.099532 -1.10452
-1.14137 -0.0761922 -1.09118
-1.13153 -0.0390046 -1.02383
-1.13277 -0.00870518 -1.03869
-1.13263 -0.00120062 -1.03904
-1.47816 -1.56394 -3.2321
-1.47727 -1.51426 -3.23444
-1.44493 -1.14869 -3.06327
-1.29038 -0.820172 -1.99153
-1.27663 -0.7521 -1.90314
-1.27192 -0.712064 -1.87578
-1.28393 -0.698722 -1.96607
-1.28811 -0.694079 -1.99749
-1.28791 -0.682616 -1.99803
-1.29218 -0.677743 -2.03015
-1.31048 -0.669246 -2.16555
-1.3204 -0.670903 -2.23778
-1.32542 -0.665478 -2.27551
-1.33057 -0.65992 -2.31415
-1.33584 -0.654225 -2.35374
-1.34125 -0.648388 -2.39433
-1.34101 -0.635349 -2.39494
-1.34655 -0.629199 -2.43656
-1.34632 -0.615994 -2.43719
-1.352 -0.609517 -2.47988
-1.35782 -0.602872 -2.52369
-1.35758 -0.589325 -2.52433
-1.35733 -0.575778 -2.52497
-1.36331 -0.568601 -2.56994
-1.36306 -0.554875 -2.57059
-1.36281 -0.54115 -2.57124
-1.36257 -0.527424 -2.57189
-1.36819 -0.49169 -2.6194
-1.36794 -0.477782 -2.62006
-1.36133 -0.458797 -2.57513
-1.3549 -0.440305 -2.53137
-1.35465 -0.426758 -2.53201
-1.35441 -0.413211 -2.53265
-1.35246 -0.304833 -2.53778
-1.34622 -0.288552 -2.49506
-1.34598 -0.275179 -2.49569
-1.34574 -0.261805 -2.49632
-1.3455 -0.248432 -2.49695
-1.35124 -0.237097 -2.54098
-1.15639 -0.14713 -1.13179
-1.1522 -0.138314 -1.10267
-1.15192 -0.122745 -1.1034
-1.15164 -0.107176 -1.10414
-1.15136 -0.0916069 -1.10488
-1.15122 -0.0838223 -1.10524
-1.14702 -0.0683975 -1.07731
-1.14109 -0.0535972 -1.03655
-1.13899 -0.0388701 -1.02383
-1.14213 -0.00806608 -1.05232
-1.14172 0.0146108 -1.0534
-1.13974 0.0214485 -1.0401
-1.14145 0.0297287 -1.05411
-1.49444 -1.54708 -3.23286
-1.49355 -1.49741 -3.23521
-1.49325 -1.48085 -3.23599
-1.46104 -1.16421 -3.0625
-1.45215 -1.13243 -3.00494
-1.30649 -0.828209 -2.02302
-1.29208 -0.759145 -1.93266
-1.28715 -0.718608 -1.9047
-1.31331 -0.691158 -2.09546
-1.32284 -0.681157 -2.16496
-1.15999 -0.138174 -1.10266
-1.15767 -0.122275 -1.08897
-1.15943 -0.107036 -1.10413
-1.15915 -0.0914664 -1.10487
-1.1567 -0.0681864 -1.09153
-1.15024 -0.0381655 -1.05089
-1.1497 -0.00792966 -1.05232
-1.14943 0.00718825 -1.05303
-1.14712 0.0290886 -1.04045
-1.51102 -1.54678 -3.23285
-1.51072 -1.53022 -3.23363
-1.50983 -1.48055 -3.23598
-1.50953 -1.46399 -3.23676
-1.47686 -1.16392 -3.06249
-1.37228 -0.921741 -2.38136
-1.30786 -0.766343 -1.96283
-1.30704 -0.720989 -1.96498
-1.33024 -0.697988 -2.12923
-1.3352 -0.693067 -2.16438
-1.33499 -0.680938 -2.16495
-1.34549 -0.682873 -2.23717
-1.35081 -0.677592 -2.27489
-1.36186 -0.666639 -2.35311
-1.36759 -0.660957 -2.39369
-1.16541 -0.122135 -1.08897
-1.16722 -0.106895 -1.10413
-1.16652 -0.0679721 -1.10597
-1.16196 -0.0451103 -1.07838
-1.15926 -0.00728023 -1.06615
-1.15699 0.00732469 -1.05302
-1.1508 0.027702 -1.01372
-1.5273 -1.52993 -3.23361
-1.527 -1.51337 -3.2344
-1.52581 -1.44714 -3.23753
-1.52551 -1.43058 -3.23831
-1.50204 -1.18034 -3.12257
-1.47425 -1.10103 -2.94903
-1.4488 -1.02842 -2.79016
-1.32887 -0.781429 -2.02519
-1.32316 -0.727848 -1.99583
-1.33768 -0.726291 -2.09376
-1.34268 -0.721752 -2.12809
-1.34246 -0.709762 -2.12865
-1.37498 -0.679284 -2.35249
-1.17102 -0.121673 -1.07475
-1.17502 -0.106755 -1.10412
-1.17432 -0.0678316 -1.10596
-1.17189 -0.0524536 -1.09225
-1.17175 -0.0447266 -1.09261
-1.16895 -0.00662127 -1.08019
-1.16456 0.00746109 -1.05302
-1.15821 0.0278356 -1.01371
-1.53298 -1.47435 -3.17143
-1.54298 -1.47995 -3.23595
-1.54208 -1.43028 -3.2383
-1.54149 -1.39716 -3.23986
-1.54119 -1.38061 -3.24064
-1.5181 -1.18005 -3.12256
-1.4896 -1.10075 -2.94902
-1.48056 -1.07081 -2.89477
-1.47178 -1.04173 -2.84206
-1.42493 -0.938198 -2.55237
-1.36728 -0.822581 -2.19394
-1.34998 -0.749785 -2.09262
-1.18088 -0.121857 -1.08895
-1.18505 -0.106829 -1.11876
-1.18491 -0.0989855 -1.11913
-1.18477 -0.0911424 -1.1195
-1.18435 -0.067613 -1.12061
-1.18169 -0.0443373 -1.10705
-1.18099 -0.00541432 -1.10889
-1.17423 0.00822286 -1.06685
-1.17199 0.0151565 -1.05337
-1.16775 0.0212756 -1.02662
-1.16561 0.0279691 -1.0137
-1.54901 -1.45775 -3.17219
-1.55926 -1.4631 -3.23671
-1.55896 -1.44654 -3.2375
-1.55866 -1.42998 -3.23828
-1.55747 -1.36375 -3.24141
-1.55717 -1.34719 -3.24219
-1.55687 -1.33063 -3.24298
-1.5449 -1.22957 -3.18297
-1.53446 -1.19581 -3.12178
-1.53417 -1.17976 -3.12254
-1.50469 -1.08513 -2.94973
-1.47769 -0.998505 -2.79153
-1.4105 -0.868878 -2.38379
-1.39127 -0.827726 -2.26772
-1.37869 -0.773271 -2.19625
-1.19088 -0.122043 -1.10337
-1.1922 -0.0674715 -1.1206
-1.19192 -0.0517852 -1.12134
-1.19149 -0.0282558 -1.12246
-1.19121 -0.0125696 -1.1232
-1.56386 -1.37597 -3.17602
-1.56269 -1.31077 -3.1791
-1.5621 -1.27817 -3.18065
-1.56181 -1.26187 -3.18142
-1.56152 -1.24557 -3.18219
-1.50108 -1.01138 -2.84344
-1.40996 -0.823918 -2.30626
-1.4034 -0.802364 -2.2689
-1.40317 -0.789796 -2.26949
-1.49304 -0.564326 -2.86458
-1.49278 -0.549425 -2.86528
-1.20301 -0.0988587 -1.13398
-1.2053 -0.0910545 -1.14946
-1.20515 -0.0830916 -1.14983
-1.20501 -0.0751287 -1.15021
-1.20244 -0.0672485 -1.13548
-1.20216 -0.0514434 -1.13622
-1.1992 -0.0202711 -1.12282
-1.57988 -1.35937 -3.17678
-1.57959 -1.34307 -3.17755
-1.579 -1.31048 -3.17909
-1.5663 -1.17918 -3.12251
-1.55569 -1.14669 -3.06316
-1.5354 -1.08458 -2.9497
-1.53512 -1.06924 -2.95043
-1.52515 -1.02464 -2.89687
-1.45052 -0.875299 -2.46715
-1.40876 -0.743844 -2.23418
-1.40238 -0.723739 -2.19855
-1.37299 -0.653098 -2.03117
-1.37826 -0.647838 -2.06403
-1.3894 -0.648946 -2.13144
-1.51754 -0.601337 -2.91688
-1.517 -0.571101 -2.91831
-1.52519 -0.51699 -2.97653
-1.52492 -0.50165 -2.97726
-1.52464 -0.48631 -2.97798
-1.51509 -0.465275 -2.92331
-1.51401 -0.404804 -2.92617
-1.50475 -0.385234 -2.87302
-1.49575 -0.366216 -2.82136
-1.49548 -0.351524 -2.82206
-1.42606 -0.281643 -2.4115
-1.41263 -0.263957 -2.3327
-1.4124 -0.251236 -2.3333
-1.41868 -0.240495 -2.37314
-1.42512 -0.229486 -2.41396
-1.42489 -0.216447 -2.41458
-1.43149 -0.204995 -2.45645
-1.21355 -0.106836 -1.1487
-1.21341 -0.0988736 -1.14907
-1.21255 -0.0510964 -1.15133
-1.2145 -0.0187924 -1.1682
-1.21435 -0.0107683 -1.16857
-1.21421 -0.0027442 -1.16895
-1.21406 0.00527994 -1.16933
-1.59591 -1.34278 -3.17753
-1.59532 -1.31018 -3.17907
-1.59503 -1.29388 -3.17984
-1.59474 -1.27758 -3.18061
-1.59444 -1.26128 -3.18139
-1.58266 -1.19494 -3.12174
-1.5718 -1.16221 -3.0624
-1.55076 -1.0843 -2.94969
-1.55021 -1.05362 -2.95114
-1.54029 -1.02437 -2.89685
-1.53065 -0.995945 -2.84412
-1.50385 -0.943935 -2.69324
-1.48708 -0.906936 -2.59958
-1.43474 -0.785295 -2.30804
-1.4212 -0.74362 -2.23417
-1.40828 -0.703883 -2.16373
-1.3848 -0.664479 -2.03062
-1.37868 -0.623646 -2.00065
-1.54331 -0.670116 -2.96927
-1.54221 -0.608755 -2.97217
-1.53186 -0.55571 -2.91901
-1.53159 -0.540592 -2.91972
-1.54083 -0.532054 -2.97579
-1.22412 -0.106913 -1.16402
-1.22081 -0.0668784 -1.15057
-1.22052 -0.0509527 -1.15132
-1.22282 -0.0346958 -1.16743
-1.22267 -0.0266717 -1.16781
-1.22471 0.00607204 -1.18493
-1.61223 -1.34249 -3.17752
-1.61193 -1.32619 -3.17829
-1.61164 -1.30989 -3.17906
-1.61047 -1.24469 -3.18214
-1.61017 -1.22839 -3.18291
-1.57657 -1.11461 -3.00556
-1.56529 -1.038 -2.95185
-1.44702 -0.759623 -2.30923
-1.43979 -0.726276 -2.27243
-1.39016 -0.623439 -2.00064
-1.57909 -0.687771 -3.0848
-1.56817 -0.647533 -3.02763
-1.55756 -0.608478 -2.97215
-1.55729 -0.593138 -2.97288
-1.54727 -0.570555 -2.91828
-1.23215 -0.106768 -1.16401
-1.23172 -0.0826958 -1.16515
-1.23157 -0.0746716 -1.16553
-1.23114 -0.0505993 -1.16666
-1.23071 -0.0265269 -1.1678
-1.23281 0.00621799 -1.18492
-1.61479 -1.19436 -3.12171
-1.6145 -1.17831 -3.12246
-1.60316 -1.14583 -3.06312
-1.57029 -1.0087 -2.89754
-1.47413 -0.776427 -2.38804
-1.56213 -0.555164 -2.91898
-1.29984 -0.250917 -1.48007
-1.36308 -0.223876 -1.84197
-1.24574 -0.107069 -1.19537
-1.23917 -0.0504544 -1.16666
-1.24149 -0.0259814 -1.18339
-1.2409 0.0063639 -1.18492
-1.60774 -1.11405 -3.00553
-1.60746 -1.09848 -3.00626
-1.60718 -1.08291 -3.007
-1.58515 -0.993311 -2.89824
-1.58488 -0.978193 -2.89895
-1.5746 -0.950432 -2.84619
-1.49481 -0.785028 -2.42894
-1.28482 -0.275655 -1.34171
-1.28466 -0.266889 -1.34213
-1.29134 -0.261201 -1.37991
-1.30866 -0.222808 -1.48139
-1.38926 -0.217232 -1.9282
-1.25361 -0.0906233 -1.19613
-1.25002 -0.0500944 -1.18223
-1.24987 -0.0420081 -1.18261
-1.249 0.00650989 -1.18491
-1.62249 -1.06706 -3.00772
-1.62221 -1.05149 -3.00845
-1.62193 -1.03592 -3.00919
-1.58926 -0.935261 -2.84688
-1.57907 -0.908496 -2.7956
-1.30369 -0.253625 -1.3995
-1.30717 -0.246081 -1.41943
-1.30701 -0.23701 -1.41986
-1.26162 -0.0823267 -1.19651
-1.26147 -0.0741772 -1.1969
-1.2584 -0.0661211 -1.18146
-1.25826 -0.0580348 -1.18184
-1.26103 -0.0497287 -1.19805
-1.26088 -0.0415792 -1.19844
-1.26074 -0.0334297 -1.19882
-1.26059 -0.0252802 -1.19921
-1.26044 -0.0171307 -1.19959
-1.2603 -0.00898123 -1.19998
-1.26015 -0.000831738 -1.20036
-1.63723 -1.02007 -3.00991
-1.63695 -1.0045 -3.01065
-1.65226 -0.98865 -3.01137
-1.65198 -0.973081 -3.01211
-1.27735 -0.0494346 -1.19804
-1.2797 -0.00814071 -1.21606
-1.27941 0.00828663 -1.21683
-1.23103 -0.419806 -0.86972
-1.22416 -0.406375 -0.83666
-1.22404 -0.399602 -0.83698
-1.23417 -0.340382 -0.89669
-1.23159 -0.324725 -0.885745
-1.23146 -0.317771 -0.886074
-1.21752 -0.275118 -0.821121
-1.28551 -0.0492875 -1.19803
-1.28807 -0.0162061 -1.21566
-1.28792 -0.00799247 -1.21605
-1.28763 0.00843487 -1.21682
-1.20702 0.0772893 -0.816587
-1.22919 -0.431055 -0.82454
-1.22907 -0.424325 -0.824858
-1.22895 -0.417595 -0.825176
-1.22602 -0.375298 -0.816374
-1.22373 -0.366761 -0.806114
-1.22361 -0.360117 -0.806428
-1.23439 -0.348806 -0.861684
-1.23893 -0.345462 -0.884752
-1.24118 -0.340256 -0.896684
-1.29689 -0.0489126 -1.2141
-1.29674 -0.0406989 -1.21449
-1.29659 -0.0324852 -1.21488
-1.29644 -0.0242716 -1.21526
-1.29912 0.00927088 -1.23317
-1.21363 0.0774084 -0.816581
-1.23062 -0.379929 -0.805479
-1.22819 -0.364815 -0.795665
-1.2365 -0.338395 -0.839849
-1.23079 -0.268189 -0.821425
-1.30785 -0.0154163 -1.23199
-1.3074 0.00942026 -1.23316
-1.22697 0.0670794 -0.848074
-1.22237 0.0785187 -0.82715
-1.86474 -2.31566 -3.5534
-1.75791 -1.27464 -3.18046
-1.75761 -1.25834 -3.18123
-1.75732 -1.24204 -3.182
-1.75703 -1.22574 -3.18277
-1.74332 -1.19204 -3.12158
-1.74216 -1.12785 -3.12462
-1.74187 -1.1118 -3.12538
-1.74159 -1.09575 -3.12614
-1.7413 -1.0797 -3.12689
-1.74101 -1.06365 -3.12765
-1.74072 -1.04761 -3.12841
-1.74043 -1.03156 -3.12917
-1.23846 -0.446251 -0.802332
-1.23834 -0.439607 -0.802646
-1.23822 -0.432963 -0.80296
-1.24037 -0.428551 -0.813833
-1.24025 -0.421864 -0.814149
-1.24013 -0.415178 -0.814465
-1.23775 -0.406386 -0.804217
-1.23468 -0.358094 -0.795971
-1.23679 -0.353233 -0.806729
-1.2623 -0.316806 -0.933784
-1.2376 -0.274756 -0.821103
-1.23748 -0.268069 -0.821419
-1.31614 -0.0152669 -1.23198
-1.31569 0.0095697 -1.23316
-1.31215 0.0170933 -1.21719
-1.22902 0.0786386 -0.827144
-1.83366 -2.20531 -3.33713
-1.74755 -1.2539 -3.05775
-1.74727 -1.2381 -3.0585
-1.7591 -1.1757 -3.12233
-1.74556 -1.14327 -3.06298
-1.74528 -1.12746 -3.06373
-1.24562 -0.348189 -0.817619
-1.2455 -0.341502 -0.817935
-1.3278 -0.00626872 -1.24897
-1.32037 0.0172415 -1.21718
-1.90075 -2.31502 -3.55337
-1.78238 -1.57662 -3.10335
-1.78209 -1.56057 -3.10411
-1.7818 -1.54452 -3.10486
-1.78093 -1.49638 -3.10714
-1.78065 -1.48033 -3.1079
-1.78036 -1.46428 -3.10866
-1.78007 -1.44823 -3.10942
-1.77978 -1.43218 -3.11018
-1.77949 -1.41614 -3.11093
-1.7792 -1.40009 -3.11169
-1.77891 -1.38404 -3.11245
-1.77862 -1.36799 -3.11321
-1.77834 -1.35194 -3.11397
-1.77805 -1.33589 -3.11473
-1.77776 -1.31985 -3.11549
-1.77747 -1.3038 -3.11624
-1.77718 -1.28775 -3.117
-1.77689 -1.2717 -3.11776
-1.7743 -1.12727 -3.12459
-1.77401 -1.11122 -3.12535
-1.77372 -1.09517 -3.12611
-1.77343 -1.07912 -3.12686
-1.77285 -1.04703 -3.12838
-1.24861 -0.397468 -0.794086
-1.24849 -0.390866 -0.794398
-1.24837 -0.384264 -0.79471
-1.24826 -0.377662 -0.795022
-1.24814 -0.371059 -0.795334
-1.26846 -0.297745 -0.898643
-1.25348 -0.282511 -0.831513
-1.25099 -0.274514 -0.82109
-1.24854 -0.266619 -0.8108
-1.24842 -0.259975 -0.811114
-1.2483 -0.25333 -0.811428
-1.24588 -0.245619 -0.801264
-1.24576 -0.239017 -0.801576
-1.24564 -0.232415 -0.801888
-1.32498 0.0247934 -1.20146
-1.79844 -1.57633 -3.10333
-1.80715 -1.29006 -3.17964
-1.80686 -1.27376 -3.18042
-1.80657 -1.25746 -3.18119
-1.80627 -1.24116 -3.18196
-1.7918 -1.20722 -3.12078
-1.79152 -1.19117 -3.12154
-1.79123 -1.17512 -3.1223
-1.79094 -1.15907 -3.12306
-1.79065 -1.14303 -3.12382
-1.78892 -1.04674 -3.12837
-1.25336 -0.421583 -0.782538
-1.25289 -0.395341 -0.783779
-1.25242 -0.369098 -0.785019
-1.24923 -0.191962 -0.793393
-1.24684 -0.184731 -0.783469
-1.24672 -0.178211 -0.783777
-1.2466 -0.171691 -0.784085
-1.24424 -0.164631 -0.77428
-1.2419 -0.157657 -0.764597
-1.24179 -0.151218 -0.764901
-1.23948 -0.14437 -0.755334
-1.2372 -0.137605 -0.745884
-1.23709 -0.131245 -0.746185
-1.23697 -0.124884 -0.746486
-1.23686 -0.118523 -0.746786
-1.32966 0.024142 -1.1856
-1.2518 0.0532582 -0.836572
-1.24934 0.0590659 -0.826183
-1.24922 0.06571 -0.826497
-1.2491 0.0723542 -0.826811
-1.24898 0.0789984 -0.827125
-1.81451 -1.57604 -3.10332
-1.81393 -1.54394 -3.10483
-1.80499 -1.04645 -3.12835
-1.25782 -0.432358 -0.771751
-1.25993 -0.421465 -0.782532
-1.25958 -0.401783 -0.783463
-1.25688 -0.380201 -0.774217
-1.25665 -0.367162 -0.774833
-1.25348 -0.191133 -0.783154
-1.25325 -0.178093 -0.783771
-1.24612 -0.157054 -0.754723
-1.23057 -0.116985 -0.690643
-1.33776 0.0242879 -1.18559
-1.25861 0.0466921 -0.836249
-1.25316 0.0847255 -0.816856
-1.25304 0.0913277 -0.817168
-1.25293 0.0979298 -0.81748
-1.25281 0.104532 -0.817792
-1.25269 0.111134 -0.818104
-1.25026 0.116505 -0.807962
-1.25014 0.123065 -0.808272
-1.24774 0.128328 -0.798255
-1.83029 -1.5597 -3.10406
-1.82971 -1.5276 -3.10558
-1.82105 -1.04616 -3.12834
-1.26435 -0.43224 -0.771745
-1.2665 -0.421346 -0.782526
-1.26376 -0.399642 -0.773286
-1.26317 -0.367044 -0.774827
-1.30673 -0.321156 -0.971041
-1.26001 -0.191015 -0.783148
-1.25989 -0.184495 -0.783456
-1.25744 -0.177355 -0.773656
-1.25252 -0.156938 -0.754717
-1.24784 -0.143338 -0.735939
-1.24326 -0.130064 -0.717611
-1.23671 -0.116874 -0.690638
-1.26849 0.00723904 -0.845173
-1.2653 0.0468128 -0.836243
-1.25977 0.0848447 -0.81685
-1.84635 -1.55941 -3.10405
-1.84578 -1.52731 -3.10556
-1.83741 -1.06192 -3.12756
-1.27087 -0.432122 -0.771739
-1.27307 -0.421228 -0.78252
-1.27029 -0.399524 -0.77328
-1.2697 -0.366926 -0.774821
-1.31105 -0.319337 -0.958432
-1.26653 -0.190897 -0.783142
-1.26393 -0.177238 -0.773649
-1.25893 -0.156823 -0.754711
-1.25642 -0.143621 -0.745566
-1.25171 -0.130264 -0.727011
-1.24286 -0.116764 -0.690632
-1.2726 0.0134996 -0.834656
-1.272 0.0469335 -0.836237
-1.26881 0.0860023 -0.82742
-1.86242 -1.55912 -3.10403
-1.86184 -1.52703 -3.10555
-1.85463 -1.12582 -3.12451
-1.85434 -1.10977 -3.12527
-1.85405 -1.09372 -3.12603
-1.85376 -1.07767 -3.12679
-1.85347 -1.06163 -3.12755
-1.2774 -0.432005 -0.771733
-1.27717 -0.418966 -0.772349
-1.27681 -0.399407 -0.773274
-1.27646 -0.379848 -0.774199
-1.27623 -0.366809 -0.774815
-1.28495 -0.300658 -0.819794
-1.27306 -0.19078 -0.783136
-1.27042 -0.177121 -0.773643
-1.26534 -0.156707 -0.754705
-1.26511 -0.143908 -0.75531
-1.26256 -0.130785 -0.746161
-1.26004 -0.117822 -0.737123
-1.27678 0.0130363 -0.823959
-1.27618 0.0462572 -0.82553
-1.27299 0.085083 -0.816837
-1.87848 -1.55883 -3.10402
-1.8782 -1.54278 -3.10477
-1.87791 -1.52674 -3.10553
-1.86954 -1.06134 -3.12753
-1.28393 -0.431887 -0.771727
-1.28369 -0.418848 -0.772343
-1.28334 -0.399289 -0.773268
-1.28299 -0.37973 -0.774192
-1.28275 -0.366691 -0.774809
-1.28649 -0.297721 -0.79873
-1.27959 -0.190662 -0.78313
-1.2769 -0.177004 -0.773637
-1.27413 -0.157076 -0.764566
-1.27151 -0.143793 -0.755304
-1.27105 -0.118194 -0.756514
-1.28671 -0.0263796 -0.832747
-1.28031 0.0455894 -0.814958
-1.2796 0.0852022 -0.816831
-1.89455 -1.55854 -3.104
-1.90974 -1.54908 -3.16722
-1.90887 -1.50018 -3.16954
-1.90857 -1.48388 -3.17031
-1.90828 -1.46758 -3.17108
-1.90799 -1.45128 -3.17185
-1.90769 -1.43498 -3.17262
-1.9074 -1.41868 -3.17339
-1.90593 -1.33719 -3.17724
-1.90564 -1.32089 -3.17801
-1.90535 -1.30459 -3.17878
-1.9033 -1.1905 -3.18418
-1.903 -1.1742 -3.18495
-1.29057 -0.438289 -0.771412
-1.29022 -0.41873 -0.772337
-1.28987 -0.399171 -0.773262
-1.28928 -0.366573 -0.774803
-1.29053 -0.296221 -0.788394
-1.28612 -0.190544 -0.783123
-1.28339 -0.176887 -0.773631
-1.28058 -0.15696 -0.76456
-1.27792 -0.143677 -0.755298
-1.27746 -0.118079 -0.756508
-1.2934 -0.0262589 -0.832741
-1.28428 0.0514907 -0.80483
-1.28357 0.0908543 -0.806691
-1.91062 -1.55825 -3.10399
-1.92606 -1.54878 -3.16721
-1.92548 -1.51618 -3.16875
-1.90167 -1.06076 -3.1275
-1.2971 -0.438171 -0.771406
-1.29686 -0.425132 -0.772023
-1.29651 -0.405573 -0.772947
-1.29581 -0.366456 -0.774796
-1.2971 -0.296103 -0.788387
-1.29264 -0.190427 -0.783117
-1.28988 -0.176771 -0.773625
-1.28703 -0.156844 -0.764554
-1.28433 -0.143562 -0.755292
-1.28387 -0.117963 -0.756502
-1.29484 -0.0267957 -0.811513
-1.29084 0.0516091 -0.804824
-1.29014 0.0909727 -0.806685
-1.92668 -1.55796 -3.10397
-1.94209 -1.53219 -3.16796
-1.93974 -1.4018 -3.17413
-1.93945 -1.3855 -3.1749
-1.93915 -1.3692 -3.17567
-1.93886 -1.3529 -3.17644
-1.9374 -1.27141 -3.18029
-1.9371 -1.25511 -3.18106
-1.93681 -1.23881 -3.18183
-1.93652 -1.22251 -3.1826
-1.93505 -1.14101 -3.18646
-1.9186 -1.10861 -3.12521
-1.91831 -1.09256 -3.12597
-1.91803 -1.07652 -3.12673
-1.30362 -0.438054 -0.7714
-1.30339 -0.425014 -0.772017
-1.30304 -0.405456 -0.772941
-1.3028 -0.392416 -0.773558
-1.30269 -0.385897 -0.773866
-1.30245 -0.372858 -0.774482
-1.30105 -0.294623 -0.77818
-1.29659 -0.189612 -0.773006
-1.29636 -0.176654 -0.773619
-1.29347 -0.156728 -0.764548
-1.29062 -0.137046 -0.755589
-1.29039 -0.124247 -0.756194
-1.29116 -0.0279456 -0.770636
-1.29483 0.0509162 -0.794514
-1.2967 0.0910911 -0.806678
-1.94246 -1.54163 -3.10471
-1.9584 -1.5319 -3.16795
-1.95606 -1.4015 -3.17411
-1.95518 -1.35261 -3.17642
-1.95371 -1.27111 -3.18028
-1.95283 -1.22221 -3.18259
-1.95137 -1.14072 -3.18644
-1.95049 -1.09182 -3.18875
-1.31015 -0.437936 -0.771394
-1.31003 -0.431416 -0.771702
-1.30992 -0.424897 -0.77201
-1.30957 -0.405338 -0.772935
-1.30634 -0.37091 -0.764425
-1.29726 -0.289226 -0.738614
-1.29795 -0.188128 -0.753163
-1.29772 -0.175329 -0.753768
-1.29737 -0.15613 -0.754675
-1.29703 -0.136931 -0.755583
-1.29428 -0.123851 -0.746432
-1.2928 -0.0411633 -0.75034
-1.29257 -0.0284421 -0.750942
-1.29877 0.050232 -0.784332
-1.30065 0.0901515 -0.796357
-1.97531 -1.5642 -3.16639
-1.97472 -1.5316 -3.16793
-1.97238 -1.40121 -3.1741
-1.9715 -1.35231 -3.17641
-1.97003 -1.27082 -3.18026
-1.96915 -1.22192 -3.18257
-1.96769 -1.14043 -3.18643
-1.9671 -1.10783 -3.18797
-1.96681 -1.09153 -3.18874
-1.31341 -0.403188 -0.762887
-1.3133 -0.396709 -0.763193
-1.31318 -0.39023 -0.7635
-1.31306 -0.383751 -0.763806
-1.31295 -0.377272 -0.764112
-1.31019 -0.368986 -0.754491
-1.30108 -0.287832 -0.729018
-1.29677 -0.186025 -0.724296
-1.29632 -0.16089 -0.725485
-1.29586 -0.135754 -0.726673
-1.29813 -0.123459 -0.736788
-1.29417 -0.0414945 -0.731128
-1.29642 -0.0286288 -0.741271
-1.30009 0.0487732 -0.764349
-1.23738 0.340401 -0.557736
-1.23718 0.351439 -0.558258
-1.99162 -1.56391 -3.16638
-1.99104 -1.53131 -3.16792
-1.98928 -1.43351 -3.17254
-1.98899 -1.41721 -3.17331
-1.9884 -1.38462 -3.17485
-1.98811 -1.36832 -3.17562
-1.98781 -1.35202 -3.17639
-1.98693 -1.30312 -3.17871
-1.98605 -1.25422 -3.18102
-1.98576 -1.23793 -3.18179
-1.98488 -1.18903 -3.1841
-1.98459 -1.17273 -3.18487
-1.98371 -1.12383 -3.18718
-1.30487 -0.286455 -0.719538
-1.30306 -0.185912 -0.72429
-1.30261 -0.160776 -0.725479
-1.30238 -0.148208 -0.726073
-1.30215 -0.13564 -0.726667
-1.30446 -0.123345 -0.736782
-1.30148 -0.0979367 -0.728449
-1.30136 -0.0916527 -0.728746
-1.30125 -0.0853688 -0.729043
-1.29797 -0.0416008 -0.721692
-1.30023 -0.0288132 -0.731717
-1.3045 0.0163116 -0.753034
-1.30439 0.0226722 -0.753335
-1.30427 0.0290328 -0.753636
-1.30393 0.0481145 -0.754538
-1.24102 0.338297 -0.550355
-1.24082 0.349278 -0.550874
-2.00794 -1.56361 -3.16636
-2.00735 -1.53101 -3.1679
-2.00618 -1.46582 -3.17099
-2.00589 -1.44952 -3.17176
-2.0053 -1.41692 -3.1733
-2.00472 -1.38432 -3.17484
-2.00413 -1.35172 -3.17638
-2.00354 -1.31913 -3.17792
-2.00296 -1.28653 -3.17946
-2.00237 -1.25393 -3.181
-2.00179 -1.22133 -3.18254
-2.0012 -1.18873 -3.18408
-2.00061 -1.15614 -3.18562
-1.99973 -1.10724 -3.18794
-1.3086 -0.285095 -0.710171
-1.30681 -0.185153 -0.714895
-1.30901 -0.166947 -0.725176
-1.31124 -0.148519 -0.735581
-1.31101 -0.135875 -0.736179
-1.31079 -0.123231 -0.736776
-1.31067 -0.116909 -0.737075
-1.31033 -0.097943 -0.737972
-1.3127 -0.0853429 -0.748218
-1.30999 -0.0789769 -0.738868
-1.30422 -0.0414881 -0.721686
-1.30652 -0.0286998 -0.731711
-1.31098 0.0100658 -0.752728
-1.31087 0.0164264 -0.753028
-1.31064 0.0291476 -0.75363
-1.31018 0.0545899 -0.754832
-1.24652 0.338396 -0.55035
-1.24632 0.349377 -0.550869
-2.02426 -1.56332 -3.16635
-2.02367 -1.53072 -3.16789
-2.0225 -1.46552 -3.17097
-2.02133 -1.40033 -3.17405
-2.02015 -1.33513 -3.17713
-2.01986 -1.31883 -3.1779
-2.01928 -1.28623 -3.17944
-2.01898 -1.26993 -3.18022
-2.01781 -1.20474 -3.1833
-2.01752 -1.18844 -3.18407
-2.01693 -1.15584 -3.18561
-2.01605 -1.10694 -3.18792
-1.3123 -0.28375 -0.700915
-1.31295 -0.178794 -0.715184
-1.3153 -0.166833 -0.72517
-1.31746 -0.142083 -0.735874
-1.31734 -0.135761 -0.736173
-1.317 -0.116795 -0.737069
-1.31689 -0.110473 -0.737368
-1.31677 -0.104151 -0.737667
-1.3193 -0.0979493 -0.74761
-1.31895 -0.0788676 -0.748512
-1.31304 -0.0411543 -0.731111
-1.31541 -0.0282865 -0.741253
-1.32001 0.010722 -0.762516
-1.31966 0.0299209 -0.763424
-1.31955 0.0363205 -0.763726
-1.31943 0.0427201 -0.764029
-1.31932 0.0491197 -0.764331
-1.3192 0.0555193 -0.764634
-1.25396 0.340699 -0.557721
-1.25376 0.351738 -0.558243
-2.04058 -1.56302 -3.16633
-2.0397 -1.51413 -3.16864
-2.03882 -1.46523 -3.17095
-2.03852 -1.44893 -3.17172
-2.03823 -1.43263 -3.1725
-2.03794 -1.41633 -3.17327
-2.03618 -1.31854 -3.17789
-2.03589 -1.30224 -3.17866
-2.03559 -1.28594 -3.17943
-2.03471 -1.23704 -3.18174
-2.03442 -1.22074 -3.18251
-2.03354 -1.17185 -3.18482
-2.03325 -1.15555 -3.18559
-2.03266 -1.12295 -3.18713
-1.32111 -0.284869 -0.710159
-1.31909 -0.172435 -0.715474
-1.32159 -0.16672 -0.725164
-1.32401 -0.154613 -0.73527
-1.32367 -0.135647 -0.736167
-1.32532 -0.0787528 -0.748506
-1.31933 -0.0410409 -0.731105
-1.32174 -0.0281724 -0.741247
-1.32641 0.0108375 -0.76251
-1.32549 0.0620344 -0.76493
-1.26148 0.343027 -0.56517
-1.26128 0.354124 -0.565695
-2.0566 -1.54643 -3.16709
-2.05601 -1.51383 -3.16863
-2.05367 -1.38344 -3.17479
-2.05338 -1.36714 -3.17556
-2.05308 -1.35084 -3.17633
-2.0525 -1.31824 -3.17787
-2.05132 -1.25305 -3.18095
-2.05044 -1.20415 -3.18327
-2.05015 -1.18785 -3.18404
-2.04927 -1.13895 -3.18635
-2.04869 -1.10636 -3.18789
-1.33375 -0.34416 -0.726299
-1.33364 -0.337838 -0.726598
-1.32736 -0.284756 -0.710153
-1.32272 -0.171762 -0.706187
-1.32754 -0.147755 -0.726049
-1.32732 -0.135187 -0.726643
-1.33169 -0.078638 -0.7485
-1.32562 -0.0409275 -0.731099
-1.32807 -0.0280583 -0.741241
-1.33282 0.0109531 -0.762504
-1.3319 0.0621499 -0.764924
-1.26908 0.34538 -0.572699
-1.26683 0.354224 -0.56569
-2.07292 -1.54614 -3.16707
-2.07233 -1.51354 -3.16861
-2.07028 -1.39944 -3.17401
-2.06911 -1.33425 -3.17709
-2.06764 -1.25275 -3.18094
-2.06676 -1.20386 -3.18325
-2.06559 -1.13866 -3.18633
-2.065 -1.10606 -3.18787
-1.3402 -0.350368 -0.725994
-1.34008 -0.344046 -0.726293
-1.33711 -0.329876 -0.717429
-1.33429 -0.322122 -0.708375
-1.33362 -0.284644 -0.710147
-1.32371 -0.170549 -0.687946
-1.33384 -0.147641 -0.726043
-1.33361 -0.135073 -0.726637
-1.33531 -0.0785205 -0.738844
-1.32924 -0.0410372 -0.721662
-1.3344 -0.0279442 -0.741235
-1.33923 0.0110686 -0.762498
-1.33877 0.036667 -0.763708
-1.33865 0.0430666 -0.764011
-1.33819 0.068665 -0.765221
-1.28983 0.361952 -0.627779
-1.27446 0.356637 -0.573222
-2.08923 -1.54584 -3.16706
-2.08865 -1.51324 -3.1686
-2.0866 -1.39915 -3.17399
-2.0863 -1.38285 -3.17476
-2.08572 -1.35025 -3.1763
-2.08542 -1.33395 -3.17707
-2.08425 -1.26876 -3.18015
-2.08366 -1.23616 -3.18169
-2.08337 -1.21986 -3.18247
-2.0822 -1.15467 -3.18555
-2.08191 -1.13837 -3.18632
-1.34386 -0.354898 -0.716235
-1.34099 -0.346994 -0.707188
-1.34054 -0.322009 -0.708369
-1.33716 -0.283302 -0.700892
-1.32985 -0.170438 -0.68794
-1.33956 -0.116108 -0.727522
-1.3422 -0.110017 -0.737344
-1.34164 -0.0784063 -0.738838
-1.33549 -0.0409244 -0.721657
-1.34073 -0.0278301 -0.741229
-1.34563 0.0111841 -0.762492
-1.34529 0.0303829 -0.7634
-1.34506 0.0431821 -0.764005
-1.34471 0.0623809 -0.764912
-1.29793 0.364515 -0.635995
-1.29542 0.373647 -0.628321
-2.10555 -1.54555 -3.16704
-2.10496 -1.51295 -3.16858
-2.10379 -1.44775 -3.17166
-2.1035 -1.43145 -3.17243
-2.10321 -1.41515 -3.1732
-2.10233 -1.36626 -3.17552
-2.12106 -1.35359 -3.24088
-2.12046 -1.32047 -3.24244
-2.10086 -1.28476 -3.17937
-2.10057 -1.26846 -3.18014
-2.0994 -1.20327 -3.18322
-2.0991 -1.18697 -3.18399
-2.09881 -1.17067 -3.18476
-2.09822 -1.13807 -3.1863
-1.34483 -0.363909 -0.69707
-1.34747 -0.359374 -0.706592
-1.34736 -0.353128 -0.706887
-1.34405 -0.320445 -0.699125
-1.34122 -0.312838 -0.690287
-1.34111 -0.306666 -0.690579
-1.34066 -0.281976 -0.691746
-1.33085 -0.175319 -0.669837
-1.33335 -0.169788 -0.678977
-1.34103 -0.152798 -0.707049
-1.34354 -0.140753 -0.716926
-1.34597 -0.122279 -0.727219
-1.34842 -0.10358 -0.737637
-1.34831 -0.0972584 -0.737936
-1.34797 -0.0782923 -0.738832
-1.33368 -0.0414693 -0.694026
-1.34427 -0.0280193 -0.731675
-1.34919 0.0107546 -0.752692
-1.34862 0.0425575 -0.754195
-1.3485 0.0489181 -0.754496
-1.34839 0.0552787 -0.754796
-1.30376 0.36462 -0.635989
-1.30355 0.376276 -0.63654
-2.12187 -1.54525 -3.16703
-2.12128 -1.51265 -3.16857
-2.12011 -1.44746 -3.17165
-2.11894 -1.38226 -3.17473
-2.13734 -1.33673 -3.24165
-2.11659 -1.25187 -3.18089
-2.11542 -1.18667 -3.18398
-2.11454 -1.13778 -3.18629
-1.3484 -0.368279 -0.687655
-1.34828 -0.362106 -0.687947
-1.34456 -0.305211 -0.681547
-1.34445 -0.299074 -0.681837
-1.34412 -0.280666 -0.682708
-1.33693 -0.17521 -0.669831
-1.34192 -0.157944 -0.688509
-1.34451 -0.152244 -0.697867
-1.34979 -0.14064 -0.71692
-1.34957 -0.128147 -0.717511
-1.35192 -0.103313 -0.728105
-1.35429 -0.0781781 -0.738826
-1.33716 -0.0415732 -0.685027
-1.34229 -0.0287965 -0.703703
-1.35556 0.0108694 -0.752686
-1.35498 0.0426723 -0.754189
-1.35476 0.0553935 -0.75479
-1.35464 0.0617541 -0.755091
-1.31198 0.367213 -0.644297
-1.30939 0.376381 -0.636534
-2.13819 -1.54496 -3.16701
-2.13731 -1.49606 -3.16932
-2.13643 -1.44716 -3.17163
-2.13613 -1.43087 -3.1724
-2.13555 -1.39827 -3.17394
-2.15421 -1.35299 -3.24085
-2.15362 -1.31988 -3.24241
-2.1335 -1.28417 -3.17934
-2.1332 -1.26788 -3.18011
-2.13203 -1.20268 -3.18319
-2.13144 -1.17008 -3.18473
-2.13115 -1.15378 -3.1855
-2.13086 -1.13748 -3.18627
-1.34649 -0.369172 -0.660652
-1.34638 -0.363107 -0.660939
-1.3506 -0.298964 -0.681832
-1.35049 -0.292828 -0.682122
-1.35027 -0.280555 -0.682702
-1.343 -0.1751 -0.669826
-1.34278 -0.162971 -0.670399
-1.34535 -0.157367 -0.679542
-1.35047 -0.139788 -0.698445
-1.35582 -0.128035 -0.717505
-1.36096 -0.0970301 -0.737924
-1.36062 -0.078064 -0.73882
-1.34326 -0.0414631 -0.685021
-1.34574 -0.0289756 -0.694594
-1.35903 0.0104444 -0.743004
-1.35846 0.0420546 -0.744498
-1.35812 0.0610207 -0.745395
-1.31764 0.37904 -0.644845
-2.1545 -1.54466 -3.16699
-2.15362 -1.49577 -3.16931
-2.15216 -1.41427 -3.17316
-2.15128 -1.36538 -3.17547
-2.15098 -1.34908 -3.17624
-2.15069 -1.33278 -3.17701
-2.14893 -1.23498 -3.18163
-2.14864 -1.21868 -3.1824
-2.14835 -1.20239 -3.18317
-1.35267 -0.375127 -0.660359
-1.35256 -0.369063 -0.660646
-1.35663 -0.292717 -0.682116
-1.34649 -0.18046 -0.660786
-1.34885 -0.162861 -0.670393
-1.35387 -0.139315 -0.689367
-1.35923 -0.127625 -0.708206
-1.36729 -0.096916 -0.737918
-1.36695 -0.0779499 -0.738814
-1.34667 -0.0415665 -0.676127
-1.34915 -0.0291526 -0.685592
-1.3596 0.00949708 -0.723995
-1.36491 0.0358467 -0.744194
-1.36479 0.0421687 -0.744493
-1.36156 0.0602962 -0.735816
-2.17053 -1.52807 -3.16775
-2.16994 -1.49547 -3.16929
-2.16789 -1.38138 -3.17468
-2.18707 -1.33584 -3.2416
-2.16554 -1.25099 -3.18085
-2.16437 -1.18579 -3.18393
-1.35622 -0.385361 -0.651089
-1.35611 -0.379331 -0.651374
-1.35874 -0.375018 -0.660354
-1.36041 -0.315752 -0.672033
-1.3603 -0.309652 -0.672322
-1.35998 -0.291351 -0.673187
-1.35253 -0.180351 -0.66078
-1.36001 -0.139204 -0.689362
-1.3626 -0.127221 -0.699017
-1.37362 -0.0968019 -0.737912
-1.37328 -0.0778358 -0.738809
-1.35003 -0.0416687 -0.667336
-1.35252 -0.0293276 -0.676695
-1.36864 0.016422 -0.733731
-1.37124 0.0359608 -0.744188
-1.36496 0.0595804 -0.726351
-1.30148 0.339387 -0.550298
-2.18684 -1.52778 -3.16773
-2.18626 -1.49518 -3.16927
-2.18391 -1.36479 -3.17544
-2.18333 -1.33219 -3.17698
-2.20364 -1.33554 -3.24158
-2.20335 -1.31898 -3.24237
-2.18157 -1.2344 -3.1816
-2.18127 -1.2181 -3.18237
-2.18098 -1.2018 -3.18314
-1.36236 -0.391282 -0.650799
-1.36225 -0.385252 -0.651084
-1.36663 -0.321742 -0.671739
-1.36339 -0.296067 -0.664075
-1.36328 -0.290002 -0.664362
-1.35358 -0.202918 -0.642452
-1.35595 -0.185651 -0.651844
-1.35552 -0.16167 -0.652978
-1.35802 -0.150094 -0.6622
-1.36312 -0.126536 -0.680967
-1.37697 -0.0965757 -0.728378
-1.37984 -0.0903658 -0.738205
-1.37972 -0.0840438 -0.738504
-1.35607 -0.0415599 -0.66733
-1.35859 -0.0292181 -0.676689
-1.37493 0.0165354 -0.733725
-1.37768 0.0297529 -0.743883
-1.36262 0.057262 -0.698637
-1.30698 0.339486 -0.550293
-1.31127 0.355026 -0.565648
-2.20316 -1.52748 -3.16772
-2.20257 -1.49488 -3.16926
-2.2014 -1.42969 -3.17234
-2.20111 -1.41339 -3.17311
-2.20082 -1.39709 -3.17388
-2.19994 -1.34819 -3.17619
-2.19876 -1.283 -3.17928
-2.19847 -1.2667 -3.18005
-2.19788 -1.2341 -3.18159
-1.3685 -0.397203 -0.650508
-1.3684 -0.391173 -0.650793
-1.37001 -0.326281 -0.662636
-1.36677 -0.300728 -0.655068
-1.36666 -0.294698 -0.655353
-1.36634 -0.276609 -0.656208
-1.35954 -0.202811 -0.642447
-1.36206 -0.191537 -0.651555
-1.36195 -0.185542 -0.651839
-1.36163 -0.167557 -0.652689
-1.36406 -0.149985 -0.662194
-1.36641 -0.126145 -0.672096
-1.38005 -0.0838595 -0.719548
-1.35936 -0.0416615 -0.65864
-1.36467 -0.0291087 -0.676683
-1.38122 0.0166488 -0.733719
-1.38401 0.029867 -0.743877
-1.36866 0.0635088 -0.698922
-1.31683 0.355126 -0.565643
-2.21948 -1.52719 -3.1677
-2.2186 -1.47829 -3.17001
-2.21772 -1.42939 -3.17233
-2.21684 -1.3805 -3.17464
-2.21537 -1.299 -3.17849
-2.2145 -1.25011 -3.1808
-1.37454 -0.397094 -0.650502
-1.37335 -0.330767 -0.653637
-1.37575 -0.307977 -0.66349
-1.37281 -0.300619 -0.655063
-1.37237 -0.2765 -0.656203
-1.36817 -0.197424 -0.651266
-1.36806 -0.191429 -0.651549
-1.36795 -0.185434 -0.651833
-1.36784 -0.179439 -0.652116
-1.36774 -0.173444 -0.6524
-1.36741 -0.155459 -0.65325
-1.36966 -0.125758 -0.663328
-1.36536 -0.0415533 -0.658634
-1.36793 -0.0292829 -0.667889
-1.39034 0.0299811 -0.743871
-1.3748 0.0636195 -0.698916
-2.2358 -1.52689 -3.16769
-2.23492 -1.478 -3.17
-2.23404 -1.4291 -3.17231
-2.23316 -1.3802 -3.17462
-2.23198 -1.31501 -3.1777
-2.23169 -1.29871 -3.17847
-2.2314 -1.28241 -3.17924
-2.23081 -1.24981 -3.18079
-2.23052 -1.23351 -3.18156
-1.42566 -0.503792 -0.778346
-1.37773 -0.395152 -0.641909
-1.37762 -0.389157 -0.642192
-1.3796 -0.342718 -0.653062
-1.37949 -0.336688 -0.653347
-1.38484 -0.315312 -0.67201
-1.38767 -0.310571 -0.681217
-1.3931 -0.282293 -0.700839
-1.37148 -0.202595 -0.642436
-1.37137 -0.196635 -0.642717
-1.37105 -0.178752 -0.643563
-1.37094 -0.172792 -0.643844
-1.37073 -0.16087 -0.644408
-1.37062 -0.154909 -0.64469
-1.37298 -0.131371 -0.654378
-1.36584 -0.0418614 -0.641556
-1.36562 -0.0300075 -0.642116
-1.37234 0.0612712 -0.672158
-2.25182 -1.5103 -3.16844
-2.25123 -1.4777 -3.16998
-2.25035 -1.42881 -3.1723
-2.25006 -1.41251 -3.17307
-2.24977 -1.39621 -3.17384
-2.24889 -1.34731 -3.17615
-2.24859 -1.33101 -3.17692
-2.24742 -1.26582 -3.18
-2.24654 -1.21692 -3.18231
-2.26786 -1.21844 -3.247
-1.43223 -0.503674 -0.77834
-1.38362 -0.389049 -0.642186
-1.38066 -0.381311 -0.633977
-1.38575 -0.348639 -0.652771
-1.38564 -0.342609 -0.653056
-1.39106 -0.321302 -0.671716
-1.39393 -0.316597 -0.680921
-1.39616 -0.274801 -0.691985
-1.37745 -0.202488 -0.64243
-1.37723 -0.190566 -0.642993
-1.37713 -0.184605 -0.643275
-1.37702 -0.178645 -0.643557
-1.3767 -0.160762 -0.644402
-1.37637 -0.14288 -0.645248
-1.37616 -0.130958 -0.645811
-1.36902 -0.0419596 -0.633159
-1.37156 -0.0299006 -0.64211
-1.36996 0.059003 -0.646313
-2.26814 -1.51001 -3.16843
-2.26755 -1.47741 -3.16997
-2.26579 -1.37962 -3.17459
-2.26521 -1.34702 -3.17613
-2.26462 -1.31442 -3.17767
-2.26433 -1.29812 -3.17844
-2.26315 -1.23292 -3.18153
-1.43903 -0.516677 -0.777713
-1.4388 -0.503556 -0.778334
-1.38663 -0.381203 -0.633971
-1.38652 -0.375243 -0.634253
-1.38898 -0.35297 -0.643881
-1.39178 -0.34853 -0.652765
-1.3944 -0.331908 -0.662326
-1.3943 -0.325843 -0.662613
-1.39717 -0.321192 -0.67171
-1.39629 -0.27239 -0.674017
-1.38069 -0.207601 -0.6337
-1.38037 -0.18982 -0.63454
-1.38026 -0.183893 -0.63482
-1.37994 -0.166112 -0.635661
-1.37951 -0.142405 -0.636782
-1.3793 -0.130551 -0.637342
-1.37492 -0.0418532 -0.633153
-1.37749 -0.0297936 -0.642105
-1.37589 0.05911 -0.646307
-2.28445 -1.50971 -3.16841
-2.28387 -1.47712 -3.16995
